ply
format ascii 1.0
element vertex 886
property double x
property double y
property double z
end_header
0.622405645907156 0.841135044832569 0.026411922632109
0.519537259703115 0.428146539277819 0.854350308276987
0.342894944105671 0.734465426293686 0.068182573393221
0.733042274309670 0.962972801271106 0.157050535151661
0.580063896220742 0.981570006473359 0.135197006897690
0.510600006477386 0.220216255066813 0.195977324804915
0.644237190405772 0.029364616228009 0.428067984812782
0.878139638936537 0.778991768978861 0.154423282393609
0.742083034697684 0.716813683272805 0.598525668291728
0.559910692661230 0.288877075111097 0.004736020385621
0.603533747984788 0.928163214941120 0.372605685650649
0.307930346890899 0.442314606883899 0.172310984946950
0.755393007529850 0.880845160588743 0.343687866745361
0.244730218966554 0.476642684976891 0.112171103192579
0.836277606057742 0.612734714480072 0.528044953245506
0.558344410474417 0.563310552912220 0.037772864245158
0.297250269855344 0.680569654145693 0.077995861271723
0.856366273373537 0.381095708514833 0.217225339495941
0.859463464081599 0.269452476273159 0.259384269887574
0.342841087887900 0.662143548451209 0.523306978639487
0.743111420613744 0.258289091418918 0.708920413819559
0.917468278313838 0.102221100768341 0.528917999655645
0.547739567812306 0.195280944626421 0.084158003031253
0.849642627583535 0.248522042859044 0.476571147821073
0.498650044395925 0.865496514425176 0.415243519208008
0.301462783485762 0.535062820786061 0.931915573966414
0.429592228789834 0.547460682458006 0.571930807813023
0.851219262508752 0.118968290555365 0.395330070717241
0.343020224390196 0.264412218779319 0.433771226237990
0.463927920446364 0.366100126346938 0.926398434638240
0.127337621435748 0.160758298129657 0.778281789739025
0.956608052303986 0.681945988399967 0.319470245222287
0.544040901089496 0.043409580701296 0.707802956376262
0.750605205439215 0.907869273894536 0.135855459227441
0.621920201150663 0.141770399588413 0.217960810678378
0.655580893128929 0.776023587628838 0.012801369034888
0.770766749893250 0.874326816247966 0.274161428843448
0.540393860611996 0.298764211054967 0.705504455298054
0.687653292940280 0.795885176604799 0.566693692591202
0.414503288357479 0.431701934951323 0.889674573693964
0.544622222023330 0.041733810608108 0.532478698843109
0.949566029354300 0.561276159316386 0.130508535166096
0.953288619991344 0.457761324199333 0.342883374987635
0.965907029280040 0.451197799308939 0.044640403792403
0.426060773038979 0.345530224107034 0.145839810136563
0.498061238857880 0.067101925852191 0.556799367640261
0.737582204223172 0.178298288057339 0.210518824945145
0.932753807147063 0.536848610634553 0.067109046951351
0.812477026977890 0.136251874176985 0.279914102215558
0.392352577142560 0.415504932845026 0.133040905494720
0.397283636530085 0.109500396180155 0.799592306256889
0.760460495295407 0.854798394459969 0.154870207774899
0.307391103682001 0.412144283653993 0.198907211006166
0.731144419389652 0.425208753142423 0.571982663925647
0.372419910483589 0.658581993475377 0.549940579873165
0.409323986777705 0.481543484900125 0.807768828966601
0.329455034342389 0.432077199502661 0.483806591866453
0.520901712861039 0.464803444375698 0.022889961465296
1.001075750233607 0.553429769506233 0.275422100001786
0.930405088289383 0.575060657330216 0.115249292981735
0.536915823994232 0.919622853723544 0.071140735283797
0.839887453542425 0.164834314113355 0.764112698181300
0.800239054283020 0.535070111120512 0.036973496953514
0.763134739980806 0.598168600845021 0.024478922081355
0.624811312217594 0.992240576377752 0.160609303606240
0.873397938336609 0.258185298512113 0.006555867652045
0.061835222654034 0.190401226916180 0.815670234677645
0.357261008829682 0.614218005363226 0.523166184408141
0.749067762068675 0.154285363397348 0.788968723790667
0.376001397851774 0.709026726196673 0.542291861021703
0.263315733269254 0.101614007552518 0.863691063425029
0.527551501476770 0.317593013117319 0.880347541029532
0.433330106415957 0.293937711144969 0.189080252985879
0.966681600119612 0.591538572575686 0.134514534417529
0.866043930688484 0.652653086649105 0.508736469327728
0.428664003968713 0.380818415970483 0.025966883690253
0.848948277392719 0.212292931748285 0.685811147606672
0.445819967449955 0.136928597430866 0.568772667357615
0.483462019146663 0.504001246489625 0.602579111446960
0.895295711789509 0.574875476213398 0.085285029177263
0.528997434468852 0.843692541710988 0.042952674163064
0.521005361874715 0.291438377745518 0.000184297026465
0.881843526253747 0.761806714878478 0.152706323235600
0.522244250089579 0.127684878612606 0.779615827188201
0.812370928490280 0.786307485333740 0.505523936620231
0.773831363505006 0.240260239029094 0.092676851050324
0.587362775705584 0.519278264301103 0.045872915558745
0.741123597887264 0.034953975331210 0.716251337004011
0.244836002380883 0.627410760305469 0.142104264962489
0.737774049080435 0.315503387700630 0.583673833511645
0.329965966492339 0.509318586874214 0.995856280763772
0.813307408783954 0.098341888095212 0.456189075764059
0.277483793727138 0.165952686671834 0.893816484246824
0.878831129087964 0.507618266517797 0.447681381465287
0.823351904172644 0.130751914153674 0.335529264873076
0.031015964752025 0.212128953360424 0.879490622140128
0.354037458975591 0.190630159016130 0.412266879653467
0.204333249157514 0.443909086794124 0.306438092807449
0.431992886635923 0.577000868145449 0.594593982582482
0.392342043962106 0.552900845160254 0.036180021976372
0.957785261057977 0.591350826803303 0.385676794274265
0.711426997937522 0.854898699801054 0.483032461106322
0.454987347394647 0.549339752421735 0.029091892298166
0.759647586056393 0.669320495401232 0.598243246980891
0.876122202177182 0.800550287204181 0.232885128715828
0.369825785310025 0.793506822867308 0.148164712508827
0.727412043612289 0.895254458491646 0.389977357378451
0.608826714529263 0.959172377166145 0.270705104675424
0.350016132098927 0.433485012521575 0.023149402708664
0.801024492802524 0.386062981764859 0.518785076750531
0.773600971895922 0.725815004040719 0.013277174401984
0.982233777977060 0.476542374071269 0.365598271980351
0.362663940898130 0.825731793807627 0.325591061122095
0.653254995981734 0.890389240397793 0.046785630181984
0.318640692496280 0.500441114888186 0.464146764176696
0.879967357589820 0.321563491045342 0.055378792131048
0.518468982523173 0.179438379724381 0.195367366152707
0.494055067439495 0.312456868502041 0.000277753159943
0.564701643059503 0.521965430963499 0.611248302683444
0.614667569448308 0.901906735959193 0.457913514761165
0.419237939908085 0.325272138596865 0.189133086153158
0.728788409201017 0.226556564459678 0.059988077700035
0.606780181735645 0.022808189632411 0.632992601384224
0.670798835182553 0.318171167229328 0.641679407675052
0.597936111118265 0.312933156613304 0.797012093440187
0.234001069109107 0.201169339625419 0.766544565033804
0.581492027243789 0.140505102630901 0.201048510462993
0.526249601321255 0.982853697086358 0.194626781282702
0.129948095378238 0.126323063690859 0.899989911179267
0.860603756709967 0.361896091521181 0.333379065979404
0.485832562302878 0.088827166685181 0.492391721801232
0.655890063568079 0.256125691463186 0.783824940049057
0.664289262319981 0.217035374695618 0.172727261013396
0.254030717635085 0.520123734161118 0.093274558794305
0.691180606810645 0.397755983112150 0.620692831560681
0.459090626091907 0.595806358051974 0.606690072383956
0.493791981067191 0.875705867515928 0.476881761136340
0.220344102007661 0.603275840276045 0.323986683753306
0.331534871315053 0.647479507961948 0.480040178228426
0.817560718390209 0.715529812026934 0.526818651315669
0.853117484672987 0.307871940855732 0.286367394967033
0.330033854184682 0.290063887672719 0.356486808909270
0.528320603023338 0.178755667277141 0.090115519229007
0.846424252673902 0.300411321824926 0.253764992917279
0.762456689844225 0.788552375462776 0.545009968097087
0.827586023538516 0.178488012596680 0.490015425280281
0.861989025098399 0.461125380937292 0.447415101375529
0.585826307522239 0.841096488066362 0.515828341483117
0.702271670220440 0.248803230539998 0.716222178924094
0.261728303345432 0.422195604325766 0.065279511604401
0.269453868598154 0.214408191971651 0.806725855395708
0.854731927642662 0.260551219227130 0.454056458069434
0.902475586099364 0.275915530493734 0.045201898215692
0.132379360597135 0.170281727942689 0.852383574940442
0.483034737673130 0.078617813633077 0.696004573728060
0.901391430375112 0.442897817408129 -0.007885997219198
0.697271803141876 0.063463063429460 0.475583758385839
0.168193609860314 0.168820144112086 0.923257695636040
0.870034853453907 0.326493186812908 0.345751516154253
0.396601240294387 0.351839362404239 0.006593845441113
0.733021071857544 0.514553393022964 0.032418517863105
0.664053652905032 0.539771235762906 0.057432109782211
0.831143876291720 0.269283267525890 0.084467504571125
0.489405499190242 0.389514690882706 0.914666380887417
0.884769458337965 0.781959653010359 0.253016284972393
0.567133795967228 0.113267348268968 0.215004316042377
0.862147760917006 0.338633320768204 0.459256057461777
0.877793682745148 0.204589122219312 0.551256769978385
0.869434883003393 0.697863438350397 0.018370891282094
0.366810842131767 0.750759941952170 0.037780310866195
0.841300296177234 0.232973811683794 0.610130135627505
0.773043323410936 0.081807890293125 0.330429283539260
0.809931326800131 0.211456577446159 0.684248522458186
0.236193293793152 0.679039551682751 0.271288662771374
0.987891195487431 0.522601452896051 0.270356704534717
0.922913563480184 0.093286342802444 0.563252026368086
0.291833865589193 0.625126423161580 0.048625172750000
0.738707663337920 0.577410523451318 0.620223355235023
0.708006026059734 0.325140379400215 0.588400743653023
0.741254234930912 0.570528225881875 0.045324448907671
0.327835649461684 0.361308104163951 0.408545231256004
0.705106804160625 0.628419027764755 0.039999375984255
0.242340369787749 0.462972975284175 0.201128181455110
0.908069166381898 0.782988046352184 0.345623349148731
0.538382611164604 0.886178042072802 0.250029756496132
0.406334322406941 0.258239519295411 0.054540666546017
0.887843172697562 0.537975448517051 0.444337321163589
0.369021130238355 0.194179913904000 0.838931021010094
0.618049708837462 0.191531846710423 -0.003721826770980
0.887931282974335 0.118990188098489 0.699470715875117
0.423809735548413 0.392540024324177 0.940186130935135
0.646804506562627 0.455527284989403 0.611637036219266
0.548096867547621 0.821965323047904 0.526453571989471
0.776103636629396 0.028910952060615 0.614368169891359
0.237323286288217 0.677016723314353 0.334827453591416
0.427718177302699 0.226070310689276 0.566816093282450
0.610679573261442 0.290006790615041 0.792878754422894
0.409074978639231 0.860086285560440 0.222185372268597
0.547925010693512 0.061814008590798 0.702018787717646
0.189196399778025 0.108985810782118 0.879482902291669
0.723956197568890 0.134241355428655 0.233476283810426
0.460451702606835 0.228163787653397 0.681983280910584
0.595510476808467 0.420230494678843 0.619778099676709
0.440959286050908 0.136043102580202 0.243367049548424
0.388980530935676 0.200462552909109 0.749761838725126
0.440530833696662 0.344919711622627 0.094975050663784
0.259734163304842 0.606327569120271 0.128697049835800
0.763691786288316 0.872797115002713 0.058787766645002
0.066964719850019 0.184412546747229 0.866408054475797
0.548093060660072 0.362434029939605 0.818074171678405
0.378165716214395 0.402662030035188 0.914444745311676
0.735653525409193 0.861423196041524 0.417297070803217
0.594430299446852 0.965219667952908 0.090476118752409
0.458401313259749 0.884774335184511 0.259881043159426
0.495111633909394 0.338901879399092 0.894578589067584
0.487396861883537 0.136630263170437 0.255248231983483
0.473737513605779 0.078576737255645 0.651024719458233
0.352599524036510 0.297120601435835 0.043830197198503
0.901593312688750 0.056283894743651 0.591513224975958
0.326219622846097 0.416367419691981 0.076677436220197
0.863447065175917 0.824092527192411 0.296644941654123
0.261613296086321 0.420738197253235 0.352331091495239
0.340287070166315 0.296149426910907 0.442047796561029
0.418022055086380 0.366259393106275 0.144659806824869
0.796437073840673 0.502672744613606 0.542005638493291
0.529885086537590 0.249152263434342 0.165874950784883
0.849793842670598 0.253279027558215 0.278402501368229
0.523175937873001 0.585714614428586 0.619820369348622
0.352286377191855 0.220121298540376 0.439749832594755
0.793346299735611 0.201840731729382 0.224740132837294
0.312716039397783 0.718061046992997 0.393441202763046
0.892630611063899 0.084126204351337 0.682118607932429
0.689276996998340 0.279174386714031 0.757845615522474
0.305056183516548 0.751667389448730 0.197188626180729
0.208519409944169 0.504098712200210 0.173419595804395
0.683322427065141 0.869102216907110 0.048398998686178
0.218940910970951 0.564296010525820 0.350377988860532
0.670458265122468 0.783412587477399 0.004235356421473
0.188460852324726 0.500112015888946 0.368646809676949
0.870470738126197 0.804830513184215 0.323969678757719
-0.001932857781518 0.178565387096095 0.921142272214749
0.484378235071143 0.263223114211451 0.779568101809257
0.136924329727260 0.153789972597968 0.936014573915322
0.520435131163671 0.216503018679130 0.761607133273326
0.704767268124611 0.276487212477604 0.688928842231628
0.965380670770668 0.127236812086305 0.582804988583193
0.380661661660375 0.435594625355325 0.880274695220078
0.316777941343236 0.750005790563944 0.128991547340849
0.392471799728557 0.246209873127724 0.533518670194800
0.327559306233978 0.449149183141989 0.472836127881400
0.517340204201636 0.148854440964517 0.800248191544222
0.192876208761555 0.505476733630922 0.286003755925585
0.527421506509374 0.946784574208392 0.100321796309993
0.304149946666387 0.147611311182291 0.888670154929154
0.641892104061330 0.936482356861921 0.087621695622410
0.493788239080176 0.170097556516095 0.776101998764974
0.881064790826888 0.276765265699598 0.344358538180622
0.246230972651499 0.638247669552299 0.197104870628755
0.356149999424325 0.315842646659399 0.029453165909088
0.722441333119151 0.837870745287473 0.493715134502893
0.659525557269296 0.812128574201805 0.544343731323732
0.452977180356989 0.631526740316435 0.607156729392439
0.215465490327306 0.567499294315156 0.241918221375141
0.957042143996527 0.681020652955454 0.177019855300310
0.317699274817581 0.308781221534716 0.457261741192490
0.517460133491320 0.962068912176233 0.224498336859144
0.222837045974736 0.470342466312299 0.363478133361153
0.847006055297629 0.214478014896414 0.484412420169335
0.713136183319530 0.061040249753137 0.327767079717895
0.879333714170557 0.796536816592661 0.286219981810057
0.445869443323198 0.079145824346229 0.411759491900068
0.619638027225559 0.906375012874706 0.321957633206840
0.373215137086705 0.218859661345058 0.264044277489815
0.692176128366201 0.443410931587245 0.573619020252860
0.644247081551348 0.265855094416539 0.774222024073677
0.713253277521193 0.415242892340628 0.594359312704996
0.639030086535863 0.051868680127266 0.776389416500145
0.607844598454163 0.790846911789571 0.560746628549014
0.390392992190544 0.332854186984158 0.552297761453232
0.363938918768341 0.497676412346521 0.518695518000365
0.381232516999768 0.443626050266834 0.531337681535985
0.426775063326608 0.290558507153864 0.138514205495902
0.305117785472737 0.537164881751790 0.935081807917892
0.364357949135270 0.476347439552066 0.871446710402991
0.490351250938245 0.109887047676697 0.726858690813759
0.840320961837842 0.709164284349735 0.505592632356819
0.958433740668761 0.632774640085470 0.210770396999999
0.559521306585231 0.257527423887139 -0.003368331259689
0.842803915783457 0.319867083633568 0.131402500597975
0.629382610009632 0.184647835756726 0.186994002872622
0.588256665577623 0.036323702922483 0.720514928583988
0.161766935262040 0.101801672729628 0.884004578525529
0.511279763287813 0.087756844941124 0.267432786901687
0.524368799350598 0.891112244645370 0.344449193279253
0.447938487806051 0.067346948300867 0.277140332479771
0.440882707564269 0.841283530901075 0.204750964272156
0.779317519648390 0.298552398808506 0.176181456359565
0.437566213750699 0.537922082379330 0.031808938286084
0.959220325229342 0.683820700708116 0.382919635053903
0.369623571698420 0.842785616769997 0.323419373773115
0.328029376841509 0.588399412068340 0.487242713255965
0.528143040552225 0.717083582025765 0.595397533599439
0.675654294781344 0.971453676365692 0.239444846877106
0.715682891391728 0.940657696483657 0.226833282312176
0.785991212347603 0.852021134457148 0.380465446634744
0.655094415161117 0.032917485995859 0.516130686868536
0.770097069814038 0.903496700925828 0.123372121293539
0.707819666214425 0.759600168192197 0.014649476948133
0.844330910369127 0.762194491407249 0.456815982724756
0.528266721438131 0.584962011940747 0.023656624524788
0.472014512815367 0.085645773796958 0.619710220109416
0.433073403816656 0.485310430207133 0.032417858991809
0.505561285363430 0.198396881714266 0.081019090044965
0.712535527249153 1.006852563420269 0.209655927917365
0.954656718275426 0.493438683701123 0.038565865060642
0.302951273681763 0.548637195683751 0.864901541362536
0.322290197688616 0.576475758496607 0.493154333170924
0.762658487483265 0.062850490116068 0.326354433224725
0.978696775366631 0.633038619596074 0.362877988389073
0.383097380901659 0.587825704955998 0.016227938566234
0.446742384787528 0.434278294639270 0.904396881171779
0.380094726285582 0.836066782754115 0.188322407471547
0.400317127198035 0.349764948564158 0.821493369174864
0.945432473335967 0.693721815360478 0.211919023741330
0.795978626747812 0.873021340078454 0.342401262314986
0.991444453892741 0.595828369855760 0.362186792559598
0.388485576793452 0.130089390682979 0.342207876771813
0.442215953174881 0.336391801444758 0.808234386056258
0.621024596463331 0.030642020599321 0.739758678995518
0.847942453435464 0.151090016387561 0.389825959012110
0.812020083603056 0.768463919581092 0.061815989721230
0.941905930714562 0.470406550266761 0.103437852610933
0.837767293199601 0.171853814077310 0.752449534357704
0.584174970996749 0.047702494809668 0.693235521105564
0.486349131314403 0.939859211965268 0.148692558404004
0.202084884806757 0.121750272932698 0.759358991365554
0.721784024340963 0.057419225372459 0.472383970429074
0.404501244144461 0.270652441568630 0.036377720112981
0.803953824354072 0.008488078247476 0.551107904528308
0.419870309186903 0.433502639678218 0.550989959508001
0.385463340545443 0.435434041694016 0.983778363497838
0.826340124654442 0.314668305157290 -0.009330220857338
0.928882683658156 0.522409874056297 0.188355928606198
0.890879080641423 0.212372985270736 0.028254864673714
0.516203143036187 0.414893616491064 0.844296181045170
0.732722647330013 0.169368181506422 0.778828442366368
0.520851063215196 0.397618433518833 0.787921468931851
0.693706509146934 0.808029712432879 0.565373119308253
0.103760062559826 0.156174719549558 0.863846980383695
0.683388330340180 0.552045127187569 0.631047953857680
0.483845457190167 0.076920645861582 0.432285160446819
0.705544511869858 0.163863921214125 0.200212417790805
0.452478126374797 0.837547449726468 0.458472622606272
0.373298731023843 0.316747503594591 0.229302023871754
0.413543818340368 0.631266200222500 0.043521433923612
0.688326475967913 0.282490925522310 0.142122703986703
0.490703853089148 0.472775450149487 0.601548332342239
0.543447910694178 0.236891828251521 0.143538434902087
0.527638705521637 0.339718491359911 0.747126546022292
0.285880746250645 0.552078594800024 0.979830017604943
0.736715487325982 0.077113748479518 0.441191755522124
0.708990668570394 0.098365968386796 0.794490604682017
0.920549993817637 0.748004072681169 0.353657041544402
0.335138989564462 0.435726782969817 0.002125640212049
0.140928592065220 0.174256645037930 0.798844289736166
0.204185270357422 0.146791137232916 0.801920666560709
0.860573886176625 0.457701765150555 0.248206378543875
0.974770158780754 0.660966392365841 0.239270768247838
0.138194001774717 0.126569269748310 0.889913973479488
0.448794036222153 0.123407034834851 0.708359867366496
0.401040373899832 0.284430524787069 0.022289086013060
0.501203585070045 0.160160508504361 0.036784270787570
0.770370120618382 0.046174942553664 0.655864925626144
0.935328471752273 0.743296753982651 0.335248734536451
0.352525654603632 0.374189492715099 0.332671007525772
0.770548077080029 0.290665926926724 0.602572898107168
0.810050312173747 0.263996533917911 0.628908223077170
0.419095139437559 0.086151859257526 0.380258030194155
0.290532942653180 0.403313955427651 0.088776186876480
0.361045408132346 0.373122836320566 0.295335441806583
0.499351623467958 0.217447665242129 0.073236814608977
0.044858960056665 0.210886544099673 0.915321053959230
0.273111303883253 0.675616731379461 0.118633999205602
0.569444668339277 0.043431523947929 0.728742322279139
0.792993433047713 0.143129019830688 0.250008898888161
0.725628686324811 0.287146314240073 0.660591640207103
0.857680552872653 0.558950818299722 0.525444729710964
0.636440067352047 0.735386748532193 0.626307878046867
0.638800460799409 0.518717346916437 0.616366350045821
0.756209547427442 0.180226361246734 0.793961911696853
0.410721375963572 0.853613189256174 0.328525970088509
0.869062323392546 0.371198981171300 0.055739676310676
0.400973732160839 0.413673959171299 0.540362812110662
0.197956138901927 0.510478146157649 0.232877585826416
0.729161836719026 0.081424854145888 0.293124727022122
0.400461424980461 0.419240435387606 0.041288186974413
0.645862844421239 0.615045629840996 0.009808282034450
0.400711288186196 0.157159994577928 0.720136415291232
0.548951332282140 0.348018380021149 0.806817275583058
0.286900022095802 0.406584132755987 0.356386892066457
0.928426272918606 0.718237874923736 0.383521806220447
0.310646815069026 0.681312150367121 0.062468311006186
0.646009077276940 1.002153508666396 0.226474545824419
0.459594471360444 0.779263859730608 0.557647792184139
0.814280298206590 0.460804716183035 0.524883252037093
0.316930604815095 0.168214216587963 0.886975797390834
0.681907298804502 0.972280736753065 0.142155760841805
0.844532289768397 0.586307062199882 0.544594803428651
0.891582984074996 0.267332691993688 -0.000877509281524
0.858581593298427 0.451502506867588 0.182544367235796
0.858267792680659 0.624248493407597 -0.015185906165883
0.530022646846814 0.345207983795941 0.009368988558578
0.394697717304569 0.606515176196640 0.031932087089587
0.650141315715209 0.715603908073644 0.608904863283270
0.678269572203013 0.580633806454661 0.636346028937527
0.786366705413979 0.043205510548022 0.729702973022273
0.807595973989643 0.611392096913036 0.567754389734859
0.417587027515582 0.305666076261656 0.073688230670856
0.889101361965372 0.029482531486006 0.565256212886270
0.338072627272575 0.508410708043491 0.009376412555546
0.624709149061613 0.629348988229906 0.023581631681138
0.314696623587949 0.393923240785252 0.267617717685782
0.034304321663288 0.190872975690949 0.831135059276322
0.916571616822439 0.452989265691495 0.391799130783451
0.520414756789900 0.844253848179647 0.505196221352135
0.383394684034340 0.588836681825380 0.004996649084037
0.509649509105041 0.575672322383416 0.046770399478912
0.440688120634086 0.568533725597685 0.034541947961117
0.348849161553522 0.317242660105439 0.484408244871945
0.407035765630070 0.574518894156919 0.578090681101280
0.466239487914401 0.125476612898123 0.800802391869572
0.317943642358218 0.779882801948987 0.204109618074354
0.601819011731788 0.059934011436558 0.492045993005602
0.389051538419835 0.288539914780532 0.246953128138378
0.548714132699779 0.087042007067383 0.254903569517594
0.872241964131716 0.727600398278651 0.490832093735741
0.280784777954685 0.656160805430295 0.176547242231598
0.256633818597188 0.415419326927234 0.276257808759063
0.548584371287235 0.654256251114881 0.005502541558348
0.354198736822583 0.706644437928963 0.029881071854248
0.537154925421784 0.301246941025230 0.649185743699299
0.561974622278652 0.260004645684482 0.163368347049995
0.251314406336354 0.736485872925174 0.356096126668894
0.526998542084313 0.435851757691736 0.040124517390490
0.615966466041231 0.328604441382552 0.637232789087781
0.855323015664101 0.744674131949955 0.027032750753637
0.513563490217397 0.894718438660534 0.376856803443353
0.238790154265201 0.143277129419144 0.740352102553425
0.324431066329074 0.554875254388847 0.014365708220158
0.544067950267191 0.619982674122763 0.636866125015405
0.650040480350234 0.030854762971471 0.456152682884486
0.829414365834642 0.642270835789448 0.017062109882068
0.469454207265339 0.234004836723611 0.074408796727127
0.542800885685607 0.881327304626203 0.424923154914919
0.338424618008618 0.279090569213747 0.460918165381296
0.676861137449932 0.639367813823694 0.012479796062396
0.884751346903733 0.140079123649656 0.512227861700735
0.914268818207531 0.648076503189885 0.108234672724350
0.416596496445351 0.161841809001212 0.857580405506060
0.877684326864819 0.795906638978618 0.409054075112379
0.121917375762800 0.195170650198658 0.918161174395598
0.480046481107944 0.840085011507703 0.489930152628606
0.417306114174810 0.745802532764657 0.058877205645595
0.387937112938371 0.797194712783998 0.482165375891300
0.536612165986425 0.164158253058521 0.000810796432013
0.867860760252587 0.410314207939649 0.332840418942554
0.980805296798754 0.507613629425050 0.301509167151322
0.637653966770834 0.272399353920164 -0.012669101370707
0.311330388528589 0.391621101896534 0.097426426598183
0.732104738931079 0.272073076168666 0.170801870439857
0.830177013723022 0.228112546884488 0.598745410755058
0.456453686271208 0.472906211005898 0.834482392265528
0.478825077435981 0.648550201008669 0.596736405386406
0.344891809726465 0.791481060693605 0.149267499586196
0.616437862009124 0.555564857474287 0.022811768499745
0.439358787534213 0.619633494235293 0.051020265515318
0.612898322556129 0.763680688329793 0.605996698649277
0.868352805364703 0.388634581403193 0.097295618202216
0.320331148985594 0.484223262938129 0.983432688752036
0.405351186124099 0.146494182879649 0.342933387967878
0.311004278193550 0.500137441542963 0.905716015497307
0.850200106146430 0.294653488605670 0.109256524645973
0.667921759274336 0.936668608839695 0.259499995433776
0.932602453271169 0.490308910877935 0.377454148645188
0.398833331193312 0.439675739349965 0.029134401326323
0.836403931113276 0.138232413365256 0.278629551274577
0.696491793037336 0.747351685009266 0.013062960073415
0.362741861540176 0.266201115509219 0.490464803061290
0.607903893860692 0.778747959317283 0.024508332216091
0.859607784392636 0.181473043212349 0.054738637538811
0.261844211500573 0.688164545948669 0.147304639026521
-0.010408036528752 0.175230173081089 0.931701006990041
0.422090962063423 0.301060898054553 0.000827219383514
0.448514025828790 0.136158269022057 0.472596826784108
0.553035909888784 0.155834887991267 0.038428022577593
0.924309402341090 0.531118178340927 0.102705798017868
0.524418689477009 0.956951459228642 0.146797106423281
0.859457806382040 0.404042099182534 0.124643089940852
0.412351199137606 0.432379568271757 0.807338993496547
0.343258143456104 0.378826907616802 0.493168462323299
0.936141902168033 0.501130271510215 0.194555255867094
0.711773430829121 0.722958635624634 0.006875483363130
0.983108106143242 0.564835477025343 0.227347761783477
0.964239102744398 0.652802183793822 0.136839585482729
0.382116030914082 0.355551685237354 0.543369036649413
0.748378286629023 0.060325055846956 0.782162275297756
0.692896375442333 0.930744160219366 0.262886788519341
0.284137222653198 0.164531183867851 0.724595768162178
0.858096281158429 0.153901690115963 0.724228307803171
0.940006302685448 0.187836497263790 0.616651784985888
0.949379218064115 0.608759407796422 0.127274449606398
0.862826673618730 0.044110574376511 0.638943203789409
0.636562585254991 0.395048152029589 -0.002829507190332
0.984759084016788 0.540929829023062 0.291427015156790
0.874478684069659 0.726915225511849 0.088146228019595
0.801254284762789 0.370089131802167 0.518037199685554
0.545970776324459 0.342276942687445 0.832013986704002
0.282297889156615 0.441821600279608 0.154791683760991
0.574702923475441 0.992296986672747 0.191157431060281
0.919244828301476 0.725195640107604 0.207041275183615
0.290592255125030 0.483417538742824 0.416281705250827
0.690118407573134 -0.013048401846288 0.615754944527434
0.409561298143463 0.197868841538761 0.230844248844795
0.222278842258624 0.578607187252131 0.180955313378598
0.881292531184157 0.383213822619036 0.389903105890461
0.186746955486036 0.533720342710705 0.313877339284639
0.803077168837479 0.283678553164244 0.627067874968638
0.695072951021515 0.306669295718855 0.621469741297760
0.844344591340735 0.227757913179524 0.247934735777211
0.641252333836171 0.101599112356068 0.782245302280108
0.682259718541382 0.264559017022674 0.008821226235189
0.294812501189016 0.396134366645135 0.278111385572612
0.231761545019971 0.562152764812015 0.399509395330560
0.274694265566307 0.438961522292596 0.063987298220163
0.252920628501905 0.560878046716551 0.163341301005733
0.304628582101010 0.530503543568264 0.922379429903402
0.722289134411281 0.902627642763491 0.361091889599643
0.408291088504472 0.802410860206756 0.435437133445721
0.469994855527865 0.366761363113256 0.937647597031407
0.711266906743458 0.047544794200606 0.433675628780522
0.515974490597793 0.879240359691215 0.439759535056338
0.432136415447548 0.686972247215293 0.582721174582482
0.982420729201069 0.533228352674144 0.344750910010056
0.440818205818007 0.180828806298457 0.563617967115231
0.438721118155031 0.117382221593356 0.466429279176309
0.821844349032991 0.308514160819894 0.003342211383768
0.884129741758708 0.166851913424411 0.707890863648352
0.893225260902788 0.195625609370065 0.522509606590959
0.823191765347573 0.253958268048002 0.112373336734764
0.816518991587690 0.615295379286767 0.555691166432484
0.537635112187805 0.184700491696863 0.013237795976700
0.179991863001409 0.158741726053260 0.901949379517005
0.439859630536585 0.403640972589752 0.971077812563948
0.683834566853050 0.143818738401469 0.796068755305826
0.481925057760682 0.918046532804595 0.177638179021841
0.524201097441223 0.354944723735270 0.842472922553925
0.523053269138707 0.368427691419614 0.812453108211841
0.261453556474322 0.183227681256879 0.755392406366844
0.472618971728233 0.277629877086551 0.812514185101232
0.806016703835168 0.233774313372896 0.220534086506660
0.557045668024300 0.061422485527799 0.674564815652045
0.363897731481656 0.398034089478077 0.896520265807458
0.593545681049213 0.369770426921442 0.012322586007437
0.956036538556631 0.494146055426347 0.264073884419334
0.377862346521287 0.314816093301294 0.276754204549368
0.555752133469272 0.924832615361370 0.276037569683410
0.444901594642402 0.199572109908920 0.196877851910385
0.814760448081958 0.190643921097737 0.498235437086730
0.825817886731118 0.810994932334705 0.147042518034607
0.741401873084287 0.806240315518076 0.532355209289999
0.505113312657499 0.959955964325130 0.145293174382459
0.871978992790464 0.285695043377006 0.303629432036668
0.408753497855904 0.264233533040972 0.581625894504280
0.865518658023394 0.216128157081891 0.398177498719388
0.791307803001055 0.147679031393673 0.783009325458134
0.723141183261513 0.140911623659974 0.799029263216733
0.421055723819088 0.386159576155294 0.574757864814967
0.484643290919403 0.522209470232692 0.018700399640483
0.741605999879440 0.019684242333823 0.696963848716516
0.236050515177795 0.646440005523508 0.213959594055557
0.519777760924303 0.252128930127197 0.014734978991441
0.967341715896526 0.642667647025337 0.253143244108797
0.935905260341462 0.439789162813677 0.071614156333821
0.941669515797559 0.589331255096716 0.118350505095011
0.810090536764316 0.199077931622657 0.228690395141922
0.194589002568458 0.118135945167747 0.861568182444171
0.142764434143139 0.136810670510173 0.844384188438646
0.396156726955882 0.302551006756840 0.552138468600513
0.682795061197977 0.017444514493341 0.554509071440075
0.350595632001978 0.800376251661949 0.339036149403393
0.494121049594439 0.955515410342487 0.154260561131484
0.400818331331481 0.490570689250351 0.032945235056227
0.434093800925231 0.446055835028224 0.569736435512881
0.259572931951630 0.487469618115820 0.103767486776633
0.895398894126238 0.430896466588261 0.311129758334939
0.858854969183065 0.317075630818289 0.293709515668370
0.611391485400324 0.984040223578997 0.212603077000240
0.731755804572277 0.971337577499588 0.196123452296741
0.644536067632781 0.465608133158917 0.624997688648263
0.841599103482043 0.013439764725169 0.532701306086757
0.873963895566538 0.268994729884712 0.419737729586656
0.779223077019570 0.836844436198806 0.177595879332145
0.555525713935312 0.301266029529230 0.847469295182355
0.879282650440526 0.382085536185234 0.422689373443002
0.768301278044968 0.744685647232568 0.588773433843717
0.950289910468657 0.575888493621586 0.225836899627778
0.424854674475194 0.437120113008544 0.977161818482525
0.781659601922562 0.320186710075983 0.534123494124615
0.760655005371951 0.362124064314958 -0.006332627746508
0.867770191597118 0.092719998621335 0.480298235838115
0.867817450481715 0.549572916975330 0.486730771114645
0.580102476663689 0.077987765408150 0.248185321048238
0.769303202196616 0.906922748526000 0.168189287322423
0.761173781662836 0.343274951129386 0.550075584340041
0.286919983510472 0.408960826504794 0.354389280122716
0.559128889013561 0.674073162432909 0.607829252871464
0.353200056317587 0.597104355865559 0.492018494171580
0.793333281820228 0.288296447831944 0.171944087559056
0.828287036628763 0.337968939954375 -0.000364497971714
0.892964800172811 0.587214429176151 0.086148083518861
0.693533934939959 0.639920024732580 0.632559332969117
0.347260072205867 0.400605571147182 0.262875628389105
0.645397044580890 0.885628332613520 0.069005719193717
0.370190669443914 0.434390034034499 0.032789272406673
0.782195370371628 0.330784103184579 0.557767806454268
0.273841771021659 0.608833261680169 0.098244469691057
0.684222061071196 0.267045313149744 0.724490005654775
0.343632013570597 0.199753308863795 0.406935244913439
0.672358648002099 0.206366649163285 0.025693274008623
0.737008185542541 0.065998809924141 0.346746929187525
0.544827236838924 0.695450009089952 -0.000500307522850
0.334490271761776 0.762453463273722 0.386087862641471
0.459900835956786 0.791670256914328 0.053543917695796
0.193222060453889 0.114722173955847 0.892663350218730
0.823530988461573 0.192041514273355 0.486528723503101
0.647120135544646 0.092766565589055 0.237930500302858
0.769822548251778 0.850780611535388 0.065783682839325
0.437895017477932 0.571446528857820 0.604921809237009
0.454313042780486 0.196624091067457 0.787057751432668
0.553124481972821 0.889713137591587 0.447700110701161
0.570516801095733 0.160317675246818 0.054903880225739
0.663590553804873 0.481498085864517 0.632755193333694
0.530643677982421 0.953674424538090 0.222462596147236
0.932891781372461 0.696106720522062 0.378777463706145
0.738972056364452 0.261726608326451 -0.010150916816002
0.132535179925266 0.114183950525550 0.918346249424983
0.399565442330011 0.462829209554212 0.915613857983139
0.909838449853041 0.605388865518468 0.441094717218045
0.813913298363062 0.273829502300257 0.610613725764034
0.865697566560139 0.396939018718903 0.291353468250156
0.425474247127641 0.488042043406870 0.851684064736752
0.848392883826509 0.200024147451217 0.049891825527905
0.385128543584760 0.428995416192386 0.842182314940274
0.803593532748523 0.094295006075312 0.365388794436179
0.920994720949735 0.273468454252344 0.041552014548230
0.287276802197469 0.652238198766127 0.426771063472161
0.806797546068344 0.090628493059112 0.495183187680903
0.066584512441971 0.218972105345113 0.914233492211873
0.878557453160091 0.083801114823987 0.719239413293471
0.848912009532795 0.643857155475786 0.539060515789848
0.868582277110764 0.555982041271754 0.494183882838641
0.752958366614555 0.231810467808572 0.781014768115668
0.730882759624595 0.141426635549026 0.228290505332216
0.435249819280530 0.137896295619744 0.522144472270551
0.712720841739875 0.974465006281385 0.179071209471663
0.877846782490396 0.715369207371919 0.068986669662113
0.513143088640835 0.176136771352273 0.001572311689231
0.378418602898559 0.347200426487073 0.076278035855604
0.415202618070243 0.369688090984194 0.868421136972276
0.612678220276288 0.479681406246209 0.609723822129029
0.929021294265570 0.739362329540136 0.230738035802151
0.494319839566236 0.261257225195681 0.805686925340535
0.240313677761973 0.170596183412910 0.893913015021633
0.276510569774337 0.357969986494520 0.002950175665776
0.855255757150062 0.131145398668303 0.748190070222458
0.453204192632891 0.152786676939182 0.813085814175367
0.675021196804834 0.049115769772476 0.442125595193168
0.511705846798332 0.711344067322914 0.592587674109139
0.719712970893591 0.213867170969387 0.011494875094651
0.783385251463990 0.228117200249000 0.033054846629855
0.631214971829623 0.031025436045615 0.545601618270771
0.878105734548997 0.404966814043988 0.424275950633418
0.895692929145342 0.146138862112301 0.717005097435980
0.513348768188476 0.696079060906774 -0.012479806430495
0.723876804216120 0.263951210077153 0.128070603902026
0.894145889605159 0.618912344030906 0.078919622554543
0.756551706718499 0.658029634135227 0.611287102154558
0.476517962895250 0.847591832440220 0.479795239764500
0.575509487363521 0.888327167237166 0.395989359372343
0.895137414701064 0.750494055592963 0.131501369851140
0.282647002068252 0.731315877101058 0.255599733885478
0.409488521101543 0.807222799574409 0.463356015220577
0.848725839691022 0.440813709339295 0.164983158319548
0.383816271856281 0.245787910813443 0.249833891149513
0.459516800297378 0.068397942872930 0.339557468918433
0.251781651483092 0.502425439259038 0.129840038864739
0.951964170943481 0.583946732557336 0.143495322849874
0.553267605692124 0.663027944007600 0.634476143196282
0.651085197099765 0.239498439480522 0.013421864407966
0.632315259052438 0.151268074488234 0.192332399876983
0.915056888445625 0.753617741195569 0.286469371823714
0.227217032147481 0.625027169893673 0.351946391769006
0.406745344396930 0.487700397347660 0.559881210955721
0.691187725014520 0.050942743661830 0.790617200542094
0.779724790277223 0.835961280016984 0.167008657290079
0.805650518430875 0.831902031254782 0.134179284031780
0.831593693508366 0.800584571682009 0.260368655018163
0.770212423394328 0.197990583111130 0.058193502009432
0.558327769996447 0.338700541413347 0.801938252107060
0.381478616913088 0.345904251206640 0.079726507996937
0.436099648439767 0.183915529716608 0.814429352043992
0.479042208880431 0.740158196604884 0.031585281650052
0.551026998324677 0.354937371963800 0.010314739507657
0.608531045821363 0.969300290054355 0.270717269954290
0.516904779991475 0.259577244102865 0.177278721429241
0.671957572558423 0.988248196985749 0.196069076345972
0.726374549670556 0.581690847002647 0.611350223366598
0.575397593348391 0.234169752651206 0.140740503569343
0.546222716149490 0.606773902529742 0.011705805393958
0.735801704389931 0.836563515095669 0.473906969197084
0.440693554097578 0.112154070835553 0.318541578257762
0.561797352424992 0.018485511541830 0.549399440698829
0.959212420386061 0.617492181164916 0.172034692949337
0.371154472582938 0.234266145983317 0.479003001780710
0.541137278849627 0.364248185561652 0.612548155699877
0.938057697194457 0.619629544893117 0.428048424195728
0.806001433975231 0.271373408830589 0.002580350245870
0.879735905575683 0.270897829491416 0.019381573450302
0.455629173124081 0.239520088549988 0.191860489096362
0.897805019075945 0.718769613693031 0.055107328224470
0.464605124926020 0.863488372776886 0.421197205481776
0.714773502519801 0.114295129179795 0.272158361454832
0.450617156433862 0.885905884685949 0.351114012870584
0.588645039913843 0.876222330212595 0.027290932761923
0.223883820397909 0.660247543517378 0.299231641907184
0.478385221218706 0.092761680629536 0.279199608894447
0.416139342693890 0.381078001261280 0.884490390025534
0.201831187939552 0.457851576877882 0.333236627622292
0.502230680185420 0.298924765973397 0.869297722721382
0.464570633097750 0.855872155375608 0.195523979873501
0.532687300162427 0.886304947186886 0.294015572659378
0.906809369534009 0.706849419431167 0.159787768927728
0.600412155409826 0.851454847760916 0.031639470408984
0.747108978856806 0.241781244402123 0.089699645095671
0.364200039920250 0.405450175714810 0.037626763547419
0.523505852573228 0.250479310526116 0.843534071952030
0.529145747478498 0.070150954617804 0.466992604501763
0.126313946909316 0.134397656416077 0.860511755706153
0.862075858101404 0.814040851682773 0.249723436797820
0.507688018894550 0.216104963884135 0.203986472761787
0.739713601303871 0.901533743691397 0.085870103626023
0.409069720510946 0.159371811470547 0.444925990408978
0.400191539194787 0.686595886195030 0.021008817058523
0.441854852583198 0.143174047191246 0.534788681016751
0.486444982650471 0.069592630899951 0.357563330596147
0.230864970790708 0.427432710055750 0.280733983714396
0.889747808741737 0.785095837296220 0.317172245869568
0.979837680226677 0.618123730360165 0.194751803455118
0.690132742611547 0.483188499049401 0.612002315810365
0.294351164702918 0.687033885780787 0.404390129227149
0.903394459542092 0.077214230642348 0.678741324871366
0.413003334982691 0.835140926748940 0.372464406061091
0.577388744268891 0.498324654711990 0.617913881703415
0.272184182826508 0.383621911369940 0.078915878475397
0.228440548419936 0.636718510608660 0.335456330526801
0.484608909815080 0.218433031936886 0.741886742334866
0.242514484672110 0.218889720126043 0.802502595832877
0.383948642647733 0.444632873948138 0.860251192256555
0.349674696206931 0.446147125493992 0.871584873324961
0.782237213808842 0.092322551217215 0.423070742325972
0.533235837577194 0.154925898589440 0.067937524834278
0.091861646642416 0.185390440511739 0.798972387108046
0.399364303604085 0.356453812495980 0.202020957694192
0.632016228339305 1.015730652168468 0.158552333249595
0.452200106883681 0.347837779447269 0.596713241067019
0.868598842886145 0.814115645755819 0.408903543473982
0.538784378410760 0.719957897131210 0.019050942531068
0.877026881598481 0.591525223930094 0.491585106781261
0.937634610883974 0.509570851100883 0.082482565747460
0.306211116217278 0.184858574122247 0.744659327098390
0.429739699192141 0.094860977855187 0.330906353296138
0.824904529215015 0.296823140242172 0.215433031432998
0.350516171776076 0.316246349943010 0.308375217988487
0.829858686149659 0.750182366404265 0.017284340243842
0.448430417578043 0.104850583747499 0.775986573459255
0.619094390960645 0.996277911476133 0.217261649583205
0.258885613211776 0.653639901524846 0.132656044379403
0.547383736112492 0.949950669619935 0.101216603878655
0.382481190445749 0.417580056908071 0.872531545503827
0.643073707286484 0.888083950482932 0.412123157495736
0.381020518090262 0.526563366636651 0.517382898744962
0.739322753907122 0.151545349450908 0.220780077751554
0.860430261770452 0.215309550800724 -0.000160996402937
0.748954608053896 0.046292779436457 0.768662948978691
0.535195336552279 0.013799037693084 0.557860410982228
0.318988457537084 0.395664522387836 0.244273911601395
0.445001343559546 0.319908243922573 0.859490347441611
0.305770449402242 0.428296956019046 0.005199751631009
0.930218557933074 0.209458548038049 0.585902784788786
0.627321927128861 0.756381702134952 -0.000728164914057
0.829111729936886 0.283758598151571 0.242475033771452
0.712923175953090 0.803987478520697 0.543014824885766
0.773561130101802 0.242640987501464 0.197731646430486
0.982512889711689 0.555445812992499 0.250838640023753
0.384559071856813 0.538054481041309 0.519107499759753
0.309329756673628 0.113124572100531 0.813465097870657
0.477737860142274 0.341429688225549 0.599620980639552
0.556282057960228 0.349133613268636 0.615903683612472
0.696658281437611 0.204381383189292 0.804058563538593
0.418756849077829 0.095250119370038 0.433743696121643
0.931547992377238 0.712681215733817 0.170169944746947
0.603651858388938 0.434471868883098 0.603510100655887
0.771215120836690 0.110738467115095 0.282389659476791
0.854724766349009 0.514756516003645 0.504036536990401
0.313138140922742 0.404280766569442 0.222757993639898
0.815595083212123 0.244069122177934 0.732168217942794
0.930025461252194 0.053925901417442 0.609522369491893
0.608320386628408 0.011117254133197 0.527441346369352
0.863527210882239 0.521709036495269 0.502402348027004
0.886573459758699 0.361232394936203 0.395414835004001
0.335054975774629 0.538459252905917 0.888491605696076
0.994120359427779 0.582922099966156 0.314849867869369
0.944394802081239 0.516493293575410 0.123944135607242
0.303544326054104 0.607631879192691 0.074492778020084
0.369692869878073 0.185306398652107 0.429482154478305
0.360217247694911 0.138246135281589 0.359370131663195
0.852579596351775 0.340614558325414 0.483010930132717
0.930878814169948 0.129945519922590 0.634311184293259
0.596774577936678 0.449869796794960 0.616112975625452
0.350525384714197 0.593423914701029 0.011413512614475
0.927515769912833 0.645264257448149 0.406111031153532
0.184123442472272 0.180009449910426 0.878808705704655
0.786767892528477 0.434925030492001 0.028167422065569
0.521467416240701 0.196428687656444 0.770180637361792
0.332960724315781 0.109357759057066 0.846816506704194
0.338668728354674 0.383663116189452 0.278875031849157
0.529390108356709 0.285131369176880 0.715922244711521
0.469183182236054 0.114567412973573 0.534960392392085
0.470399125077585 0.112552629412055 0.575036888510016
0.817277573617932 0.416037749486945 0.147065378749490
0.947511411886939 0.460688639051236 0.240883538354512
0.355508920294536 0.538708536376211 0.879964522453528
0.727167835217592 0.031871050431540 0.673458344197942
0.246423627670387 0.566992504570223 0.120795822008462
0.279693756071883 0.520899181866087 0.957826098584580
0.738394829129388 0.417527552006553 0.574245537345396
0.732427406860835 0.968065906698573 0.154040350993141
0.607663646149096 0.019334717692436 0.619825434902502
0.652685323196493 0.283772549598130 0.705034448521220
0.595156815458970 0.276447075915111 0.734112085273787
0.461654962544657 0.226221088192297 0.048369823320872
0.227774574563568 0.549792577430033 0.114865973441602
0.407529209848752 0.342837151043875 0.567892908968725
0.811164116003542 0.314735323224653 0.206296143856840
0.970238907853068 0.499095560123525 0.378537448167044
0.584465614037093 0.075965830034709 0.787244404250048
0.754919369708334 0.012016843400749 0.570030713352362
0.866637285848042 0.365541323844647 0.294392230478968
0.314679074642118 0.465345862610449 0.003150910296366
0.452212636648985 0.243153660952629 0.187087810263070
0.815200669214478 0.225033159758887 0.718615235687311
0.366406060169183 0.604214786812511 0.536195825012760
0.853407066416844 0.149059040060743 0.433300987777204
0.372370654174151 0.608696195890735 0.008072592990118
0.325920065972969 0.521653988731125 0.462191289683539
0.849380284037672 0.828404814259439 0.302262792030682
0.815977654733752 0.159215436348079 0.476165397862006
0.872942227659149 0.533085052387582 0.449373125182373
0.789578470167133 0.518471177072794 0.569921549680289
0.272270161091551 0.666628463950522 0.408514432295721
0.633688829050141 0.446205203958549 0.616435093674073
0.616385724574326 0.661649601658216 0.639213545780153
0.430208719619573 0.200436204352175 0.679230455451099
0.325856481859504 0.215897116783681 0.351299824955463
0.333950728400715 0.222034554373279 0.746249551810144
0.423688004976600 0.381279175365469 0.929226791837447
0.783526183491110 0.647846290705508 0.611048762093932
0.959283181020965 0.545451009019577 0.237455250199779
0.489857341236481 0.110081567196608 0.259070789526742
0.875330051409702 0.593268547405160 0.513198273770648
0.380509131069377 0.314502422054425 0.002516776244779
0.453622978937773 0.893432688822687 0.110743791803593
0.783987823297433 0.882829249328951 0.218414989857505
0.526759592632120 0.231152428989201 0.808886116869812
0.476305900913190 0.853019872438257 0.448395872263808
0.383201632540243 0.711812481025263 0.523671018010984
