ply
format ascii 1.0
element vertex 886
property double x
property double y
property double z
end_header
0.874587833431256 0.547207496515713 0.463013886801060
0.633851067303206 0.842529496014746 0.512374492657464
0.048219448709864 0.192080231729170 0.946103764831508
0.231158839610751 0.616289764224561 0.238086197691235
0.376300308353215 0.314515186353156 0.245923765142522
0.808970998555604 0.852577730107451 0.326983236314063
0.586061954052802 0.175917635951419 0.068539190429045
0.222944097824457 0.100465642040090 0.875114686626891
0.518533727013349 0.164353656735111 0.059338342395953
0.301781752881540 0.719722670023571 0.114741054443102
0.784818182646866 0.686240117149115 0.586758813375700
0.338972249868032 0.242735663042152 0.414770341649518
0.650112328079202 0.145851932253900 0.798948511536049
0.950806847910847 0.478503394369906 0.247119227439780
0.489627697261946 0.889743672085241 0.307443097290545
0.698817385453120 0.146799915221035 0.798119139318982
0.330642321043677 0.268916948727994 0.387121145363032
0.277628936972802 0.725289179763518 0.272188946541777
0.431798334842919 0.493958856511602 0.568395994132192
0.447369384942651 0.117813216526760 0.767322216289907
0.611860287238354 0.133084348647069 0.209966591850381
0.845675886878042 0.335161433278313 0.169339664207924
0.420399541572162 0.764959312519669 0.526583971345190
0.987962540180802 0.579236154374787 0.242229171094305
0.235957747074125 0.641538481300458 0.347548427562112
0.774922870262104 0.841608488172692 0.447508514024166
0.482664185035132 0.380659477581744 0.923082206337440
0.270190671838758 0.535327137618096 0.961466589258593
0.209731564480295 0.584049993898484 0.275775333433549
0.648600808961054 0.777717262153257 0.012027840988612
0.859157742433496 0.217854963744147 0.076115635221365
0.858498110186761 0.200958901470144 0.534812898811406
0.219926031690523 0.564991425763814 0.211292939450645
0.819046135309136 0.260527684827777 0.104653166905975
0.237199115297253 0.113488847070309 0.888624382506466
0.569234619422855 0.857094136763884 0.491581871996765
0.377675094656399 0.357559778803974 0.093095087524687
0.317612098119468 0.385741077335115 0.301189112416220
0.621795376442013 0.887929916055980 0.426023237972807
0.676898700872521 0.259758893762966 0.158429531871219
0.278513971193296 0.487337747833962 0.411198857539771
0.349035785049385 0.787172685759061 0.125029157617006
0.550014046189174 0.568063699831084 0.629860250781424
0.904069085704957 0.720446502546580 0.418722818621480
0.961476150896677 0.457981746832028 0.347461602658138
0.367732547299195 0.609023750955369 0.541136861966545
0.587893013616102 0.305994258151947 0.790868611890088
0.823342860433915 0.306321813242217 0.184940933147416
0.840786652888419 0.174580440465257 0.461452334423612
0.496598170432067 0.469684455263040 0.034543352840859
0.660483304923293 0.201294163739009 0.026865180362539
0.799421247285025 0.714090649265570 0.560763177946993
0.316622649749365 0.713488847070309 0.076435721061389
0.418864819309657 0.364696626182570 0.025308811561449
0.456786049606665 0.130002119474114 0.704179776795202
0.799495000136733 0.247474293348063 0.654119388130647
0.737579895469835 0.472301042395905 0.034409227802630
0.491961519242450 0.193990327490864 0.776931270961087
0.328046883610542 0.484931823582682 0.905296059963611
0.413398821446003 0.687712188260682 0.008404521115298
0.572851906759822 0.039070899620421 0.518860442573749
0.626799797469697 0.235035549361268 0.076593820140268
0.029136519843246 0.202799632624487 0.941768999103241
0.468923034341482 0.880294671128267 0.158832554932950
0.342754362398310 0.474938824269905 0.499091578243493
0.347689173992921 0.604741392044907 0.507203875241684
0.566474605401526 0.250467247702297 0.819397720263118
0.464517585911714 0.411574255454434 0.857328540253062
0.780056565951209 0.015540241106237 0.599866782087633
0.402872052061227 0.148033063796171 0.280952430319775
0.110785898786227 0.164681854090264 0.778382672340955
0.347174561398420 0.510167053096038 0.864877123322465
0.915331726239359 0.438124201183052 0.101292265585718
0.520239108402604 0.967216873583003 0.195163593669817
0.423169002587979 0.856623998869614 0.277386777733429
0.809899124329906 0.450474312616009 0.525015939497297
0.241166852982391 0.146817256372873 0.747106268498888
0.345190692555851 0.384148260425565 0.480404785477692
0.352527029591467 0.474737795361563 0.013970386228274
0.913525195714379 0.483145684943384 0.011462183218690
0.448588378705149 0.759151311183758 0.554251310148924
0.014886474472812 0.210811244773570 0.859382532384393
0.280300613308826 0.193599188177188 0.751538226283842
0.901934396424064 0.258130752284857 0.045653052867295
0.668659098574415 0.919719458699157 0.254792216341743
0.449893638443633 0.612674114798425 0.040321096637414
0.209317222616768 0.203147097926127 0.791898847690976
0.262439992939615 0.623210939055485 0.117312108316012
0.981640512027101 0.649940783177798 0.269009470394004
0.384686587671009 0.716845965613138 0.016214874790713
0.697202280869090 0.484672348569997 0.033439899023933
0.539114700600713 0.891548436406143 0.407831476749068
0.433521914126820 0.120837641860256 0.465981484265254
0.699490276639489 0.498338460747982 0.034573158404910
0.074879032892943 0.145639984842549 0.959036787841403
0.862498166537254 0.017346289956904 0.590866797638363
0.707036270658050 0.057153867397992 0.335155144440355
0.234284634629201 0.425061817994978 0.353125955721891
0.950168761441015 0.155409475976082 0.547998621168689
0.797148996505441 0.113683453329822 0.298480045822815
0.929905786947071 0.396694904912684 0.025952222976721
0.506077641035755 0.893315949363837 0.271428256711435
0.101814568757132 0.204539528192217 0.832628798913522
0.245258893226588 0.571872202133604 0.127358527242286
0.481547119371062 0.570169108343663 0.615566538977902
0.392847465015045 0.382654994572862 0.847078018007744
0.743360793149769 0.329541615553086 0.568324719957287
0.796386607476550 0.199921001419405 0.776678571613699
0.288373650177794 0.546192332641828 0.897786353716883
0.338455151222350 0.682587556760159 0.453566818891026
0.329923852252321 0.780518179307510 0.197405490444077
0.051955983635154 0.207492019858830 0.842516470813873
0.376243129176048 0.166210444511525 0.384247500220302
0.810652397837798 0.119871675476400 0.766901050710928
0.333786347104123 0.294577999858702 0.387015529994765
0.483459389939614 0.085304979479637 0.305415023040997
0.630998737914684 0.222906377048022 0.068608520762815
0.688678440052605 0.583859498134221 0.631817050856068
0.406884538667626 0.842560324729125 0.203245437156912
0.826593786695151 0.258148735701578 0.497316203341333
0.989967954800275 0.540722804899197 0.332435062747192
0.682663024877914 0.466016480516895 0.599601123799354
0.767889831470591 0.413156153860975 0.033234499810799
0.658104982626646 0.128010456072293 0.219959879118999
0.740071747437088 0.926083019158761 0.108170871411021
0.473957619456831 0.278858566850140 0.612417516341224
0.781700674465685 0.482972915689889 0.569374394169513
0.952270303372826 0.560031021393843 0.140916171203160
0.182585542949435 0.197461769182846 0.873170845493140
0.820309049309168 0.843528860172512 0.222525101468507
0.601888735950703 0.651833409334678 0.638886153112478
0.393854315743416 0.474566310637833 0.963209566808524
0.372838067741580 0.120431730454274 0.767017681178953
0.316172674485574 0.390831668796845 0.397783761928705
0.943637904988096 0.090953056859710 0.593192927528419
0.533535670276689 0.077197669863005 0.280060855186427
0.451268341878444 0.261857173135345 0.166760834970480
0.431565060373753 0.849160238665631 0.414085461623392
0.934060807154524 0.724666825092005 0.248404106429190
0.490201477874559 0.893076384562521 0.083552771399099
0.221432578706309 0.609374523921156 0.348254689840709
0.418825871174485 0.332028465179609 0.005039732112774
0.284142391067452 0.636317702746967 0.087713887319417
0.441817618313247 0.213295525340561 0.027208592296169
0.432606550081915 0.196502867712702 0.791996039747663
0.556657355023854 0.230442070918888 0.805764914445072
0.349344884079577 0.431697056500042 0.494374523758922
0.525873080457732 0.301380869498198 0.635879678825609
0.466538911258746 0.208339167239353 0.742337378250750
0.563869969579020 0.984064765990790 0.152950491662217
0.241568764590013 0.642136494132910 0.219298325186479
0.780572835913164 0.828908984643447 0.464730946469207
0.773725422276510 0.829891007649375 0.109059206809146
0.931244111166265 0.071809067495617 0.636819202040256
0.319244605061766 0.662177663311903 0.038740105848629
0.468087886881357 0.281079518815150 0.003715328353644
0.310021355179646 0.610860429418301 0.020634521581820
0.349406206675379 0.743196166963179 0.074276113561791
0.640391039277123 0.032347670826402 0.423516978804356
0.588692859149456 0.901529874951027 0.372134778168850
0.847396234295408 0.624157380586902 0.534929529279431
0.856415627980672 0.271906691757815 0.261145985060933
0.543299470553967 0.176506592849023 0.076485612983822
0.410253966701830 0.553205287124516 0.571097933308107
0.123844296957156 0.152350368338910 0.783669920224760
0.621624667594240 0.142936049685611 0.203768330421891
0.695378347985843 0.798278730113874 0.561087151469285
0.953016118727175 0.455208447067740 0.355999600864621
0.737793695871415 0.171797506727725 0.211431600118186
0.389173081369284 0.109760499425173 0.803127769973616
0.373589683882019 0.636636715714295 0.548802075503973
0.994897794292524 0.566330997630043 0.278797358449489
0.806359816131655 0.529785033943699 0.039728873038664
0.066424801509530 0.201355821167766 0.824931188023865
0.264446236242814 0.105879292737911 0.866283168409212
0.854578436157791 0.636918669997880 0.516929560380889
0.458885602697531 0.486037803711006 0.584905684828190
0.875871464524464 0.764357510324408 0.151734295059533
0.597594496877105 0.508817654577101 0.034348320780439
0.320776012589363 0.511653896299912 0.989457901584619
0.826058457007474 0.127002742471050 0.316868782948107
0.432367640563405 0.580649522476060 0.590996387047279
0.462911762585427 0.530239115215897 0.037396911625207
0.729616244852838 0.881820050225114 0.389123301730796
0.752692600600133 0.717106725155589 0.012353110404993
0.323531385981820 0.512668032549984 0.463059243094180
0.563274063110895 0.520665514871643 0.621560049140304
0.614035582021872 0.018867815464454 0.643655043360616
0.588393455718871 0.163085825856300 0.185053675933173
0.482872598992486 0.093184927327728 0.490240621614477
0.688049469103770 0.398807956377369 0.593089256001285
0.339723037324744 0.641110090623575 0.472298967949947
0.551505179687636 0.188443085697403 0.083705038954576
0.864608823990063 0.470111561410157 0.471657500375809
0.275840637489818 0.213321215935876 0.812795139878808
0.497633942222513 0.086655020263457 0.695866616213190
0.869594185292024 0.322291729555103 0.325653001031532
0.838059454742681 0.260402443175615 0.098907820461649
0.860791906743248 0.335245569977970 0.434880026125225
0.852952558685310 0.221533214728418 0.608620546659963
0.980411574059879 0.508646169853371 0.286948532270355
0.712586794261862 0.319794603690454 0.589661616135436
0.240495619163477 0.462384472604191 0.172979830704396
0.877742632380154 0.553557376733312 0.444981520550289
0.405124414431361 0.400931926345063 0.933507674284796
0.259325799493343 0.692959492353837 0.337239590082782
0.555700639660969 0.054460850744064 0.696534001669112
0.585681753958829 0.440672708238332 0.602231788800365
0.258031395511683 0.603933654037598 0.126649673175511
0.383194956962311 0.395289629348936 0.885650305571826
0.501894288131675 0.335136384947880 0.895045537718293
0.906414260652522 0.046997732804963 0.591968307614155
0.334242951837731 0.281494421929492 0.443063597298320
0.864465461705282 0.226058613093212 0.279849624449893
0.313799324291289 0.721916646863499 0.398312486717086
0.217110993069718 0.500852285499586 0.174690410902098
0.203213138283282 0.493696170174503 0.367011460887325
0.132727786511183 0.167967681231093 0.919324113478854
0.373520903132673 0.414359758251498 0.905004483793548
0.523236954653598 0.131856980455880 0.794062990819886
0.622250323808166 0.935711212018060 0.075554513080755
0.361288702637617 0.310808675714038 0.025170798840952
0.206580908950033 0.564857192403291 0.266739711896826
0.209642066637773 0.462018381620948 0.362297646137976
0.458340577410247 0.083252300913943 0.411235142574268
0.647654452144758 0.269733909659022 0.769732579295759
0.391077396574056 0.327887141214780 0.549929503361549
0.303771422510199 0.504007090604307 0.924520648776417
0.973525212288054 0.643613639137053 0.223458793159753
0.597013589584440 0.039803723851791 0.723767215952975
0.466523083399559 0.098154772991477 0.286730174116330
0.945610172258487 0.669120739375333 0.393305151956541
0.689923123010641 0.963776902870282 0.247139313798162
0.777089049524626 0.898997424517819 0.117724850583412
0.471558248593517 0.081907398249186 0.615851635677519
0.951902367798014 0.486273514923025 0.039114619240399
0.980136451062497 0.624260977912511 0.358978861375617
0.405130215217451 0.363299700062300 0.837203305048285
0.385129933464984 0.134326488930565 0.336706329665089
0.813666320553097 0.772883576644680 0.058878299994298
0.482054190943647 0.931444004136186 0.130718132668453
0.813575994026848 0.012703999383426 0.547460825121684
0.949697240400321 0.518173527126057 0.172930586729008
0.525583786968617 0.389701282602971 0.791270339057729
0.466515790982761 0.080891977469348 0.437873541471203
0.417388104908045 0.642767904739273 0.034883525039266
0.532999014695049 0.335747178851502 0.743944286921318
0.929199748411621 0.733237849954078 0.337998336071990
0.863143711160630 0.437535244285448 0.243974092485369
0.409431912444592 0.296290278036468 0.020658495622470
0.326570169208930 0.378349250798014 0.322786483306292
0.289511432935040 0.394912619862684 0.081694459275232
0.265163047666717 0.655325467729401 0.126303669453703
0.857077746278589 0.560029736864077 0.517065629260252
0.415146515426362 0.865161625957777 0.323664451551704
0.735861205419923 0.089682014656485 0.285546374865875
0.534044896426964 0.347380522675162 0.828689280882452
0.646635171160481 0.991365390914521 0.234470653182457
0.671671363922260 0.985132852491024 0.144155258479035
0.865272599655433 0.625060983050630 0.010197390587662
0.661399829125416 0.602216257008716 0.636287885463697
0.878723793912987 0.023835734333554 0.556447850630064
0.032221709359071 0.180548365757006 0.847389032589145
0.521170714648559 0.575642875034522 0.037151339695309
0.473720284437402 0.130355365159699 0.806464697253223
0.541816541024402 0.088720544126809 0.261409699508079
0.544740551555315 0.653758469868143 0.007901066261657
0.285825447717101 0.728480593966564 0.344888604944095
0.514162171748017 0.896919055356810 0.362598941513708
0.640141605475279 0.040952093462386 0.458160763437126
0.339370846740745 0.281444967533510 0.452212609567845
0.414153752321350 0.158212319924983 0.838700062721274
0.415560857289889 0.747402359681180 0.055389105159214
0.985647197847411 0.521453573882941 0.305199256675150
0.845141385874092 0.232970667762799 0.608691820834867
0.628319603425116 0.569991907462476 0.034668406620464
0.329814466000350 0.482767390927366 0.981507591347574
0.655600700403486 0.942928342507017 0.262230000466522
0.699044444794333 0.740864103173431 0.012180108544089
0.267265418282255 0.687315268563061 0.153819388649004
0.563588299980194 0.157988169480857 0.058166206192300
0.429324465312542 0.425711790056455 0.802622371278840
0.979583719016552 0.579250284202211 0.223892269732579
0.688773738681216 0.936151163462835 0.252953990576258
0.952289363098548 0.624245178196392 0.122825489718376
0.862908364982146 0.726725926306527 0.094536121751841
0.588562672935935 0.998309558828252 0.190197727520125
0.414918627401422 0.199256257265622 0.234161582442190
0.789888069688987 0.273594563870031 0.626814899671880
0.684833347559071 0.263457054958606 0.005668888693065
0.234608649966480 0.552511512598026 0.146290891937984
0.478968752822704 0.372664564319617 0.921060611558339
0.987041872560044 0.527857597030167 0.341259453547380
0.885528944679561 0.160489148934804 0.709933546551108
0.536575779397762 0.196039152467261 0.003151614424856
0.482640567548911 0.911027045774218 0.184664259759378
0.475118771095180 0.280444318845978 0.822423632961325
0.583164378532782 0.379629284709600 0.004504527853948
0.452429990727029 0.199168909241549 0.212916046797327
0.514634529759276 0.957319571737776 0.132514889823085
0.783409420310872 0.144024688662098 0.781434502920945
0.746275273817821 0.033496040436997 0.688713280840983
0.933438465675506 0.431666870050546 0.075542202086908
0.148482721529949 0.149750480093000 0.838583432253249
0.490922266980351 0.950546888547775 0.157824997278622
0.907165876792961 0.428440773543825 0.318846317328177
0.639337782260036 0.477712124034194 0.611892679235111
0.553603986963148 0.296271010089981 0.848892269732579
0.436366536756681 0.432342532707339 0.963261402572091
0.875223433849907 0.553588462353644 0.472221214304597
0.275941736904518 0.415239661141048 0.363232633723311
0.831851784943314 0.338709304491358 0.009939507663918
0.632165524602377 0.897687204156738 0.052619779490662
0.681743185940883 0.269137887847706 0.733868710378038
0.537032466999742 0.691899755297080 0.009795015472975
0.825951556806684 0.184685836132538 0.495203895975990
0.453579375056454 0.190129673279854 0.791672066225372
0.509793525162567 0.940129994412295 0.215516906234287
0.389101814568757 0.472383894565797 0.924656717655780
0.429151270413588 0.501761732573748 0.848399829978695
0.897457846930514 0.278916370689600 0.038110949268338
0.862150119371891 0.077703774590717 0.715402219607396
0.737812755597137 0.140649586702548 0.230151438183260
0.516052971121201 0.174146911669311 0.003051830579990
0.914387026790516 0.745526946223161 0.231119471067869
0.849366015514617 0.123366880969049 0.747566310900543
0.727909985058833 0.215145890468147 0.007742967182778
0.894315478237522 0.136016287837430 0.711566373103459
0.747569677799480 0.658749638726003 0.615158332339815
0.275310279904503 0.725406714237086 0.263223951232914
0.457809474009578 0.081173289488051 0.358277782673378
0.634978077172001 0.236286039088241 0.004251180559515
0.414386612448653 0.481073738431204 0.556745906270572
0.853215251426786 0.806411730325821 0.248538879414463
0.449826349324996 0.182360194991618 0.803386948791449
0.508888196477597 0.240243033031683 0.168396253311009
0.549859828147569 0.600720685425083 0.031274460000933
0.969148933525477 0.617797352584153 0.169281996920956
0.799014363575041 0.271179647910391 0.009765857855969
0.456236632295628 0.859138465886101 0.433195363809307
0.230725438021501 0.654683395525983 0.293148089592934
0.512777120208033 0.296811797121369 0.868246447954302
0.586790947127492 0.850078677448153 0.028836235272164
0.532477192552122 0.061548243726678 0.465579757097612
0.738083735175884 0.891267766652323 0.078343277160644
0.499999171316273 0.059521898021182 0.360001969759015
0.693679546345381 0.490371164875818 0.606592472410415
0.576668658269891 0.498308274298486 0.616810597303504
0.250928747287097 0.211833730467119 0.802512220281261
0.526864600537153 0.180750679195114 0.075401597578233
0.437159255609982 0.355385069910532 0.589655136664991
0.935687513310732 0.495479097489387 0.084551905741847
0.334426090941410 0.307695617826704 0.331280421113743
0.261680089961905 0.661762310612143 0.135674279612476
0.376427096963454 0.517483092376958 0.535298859094844
0.548361402232308 0.030198010263393 0.554717832021025
0.918173282739430 0.193800217085530 0.572925143973833
0.764567638408828 0.251394678193180 0.193684330567031
0.476570624984980 0.332116455468564 0.610039550687601
0.921830264026922 0.710953185312687 0.168829729883836
0.318433323692979 0.404684037790866 0.226709543482430
0.854380380747025 0.515041843557120 0.507942534872510
0.928809438376178 0.521856273964508 0.121162209654929
0.832264469439387 0.341900718694404 0.489054878522888
0.926513155768509 0.649780666542495 0.419366877983796
0.330983738739224 0.106761764686992 0.830114764380537
0.462283703188692 0.101688514377099 0.568661652420471
0.721593757691221 0.034655970815484 0.670719791412888
0.727826288002400 0.966030610344318 0.162912029525651
0.450443967306770 0.206654506451551 0.045072492315348
0.970693599992708 0.502483638302109 0.385504517486795
0.314539338859549 0.463230335454948 0.004224614730687
0.834099175211087 0.135357966332475 0.431009838427925
0.824072102113724 0.148882780236225 0.469804371828299
0.645164257544958 0.437835824250637 0.599367862863304
0.333923079919087 0.205937738842253 0.762041447876548
0.500566819669305 0.113463798739876 0.250634988103692
0.764116834461310 0.868352397895940 0.212054277228031
0.303918099529888 0.597855991367960 0.049017841869820
0.631273860912066 0.009809311556272 0.546780480724871
0.844674836935760 0.161832124804912 0.443173748295899
0.595708412714329 0.638629663645881 0.639527620686617
0.458728318526136 0.212088709625624 0.203312175702504
0.530504179466377 0.483778315853024 0.606417526708377
0.326262727546193 0.385664005549169 0.292188480019905
0.261003884040629 0.661909132364370 0.388106024870799
0.887785450468331 0.540504434839016 0.437439416951331
0.992081098304265 0.547173970288827 0.323576330753640
0.421762726303167 0.487511159352340 0.820065105719040
0.638890293047426 0.251595064836640 0.788361056827548
0.514200929285932 0.871478301080932 0.452368116858545
0.447653623461031 0.319203077733319 0.867877118138889
0.423243584123414 0.396996127142756 0.800885873199355
0.621777974083745 0.999462424293027 0.199275465614746
0.310566629072048 0.430036159512906 0.123851837836997
0.335918550333835 0.758094143186533 0.103508244478195
0.684298017871393 0.989342898798322 0.214150385917260
0.925424265351159 0.501271042203225 0.414807922578104
0.896981353787458 0.182560581635078 0.627313818896209
0.060817927412278 0.187662091599818 0.807650440344811
0.354153735747676 0.666468827673909 0.514700622547520
0.456262072886049 0.126708585154689 0.663909867974310
0.848998079939804 0.135072800724475 0.361468273920909
0.987579688298903 0.521463207856184 0.314303560598599
0.713848050894440 0.937454318910205 0.240456387980323
0.771807019448378 0.077697351941888 0.342196384973849
0.789090875943560 0.833540998978799 0.447715857078433
0.949493384203465 0.450734429893577 0.293208996615125
0.621032158729396 0.885731443361871 0.046557586941534
0.556092441327120 0.030593645431249 0.634376441682174
0.323304326640607 0.416310958965697 0.444100312569654
0.608447767650342 0.095208703973693 0.243950766391764
0.432693064663020 0.385301768155223 0.568519104070663
0.743209972711445 0.272026153026031 0.671866657681801
0.864118243223646 0.796826569213675 0.205008501065225
0.669041121772588 0.080720492745618 0.277843580399861
0.919306922078040 0.585730801096988 0.093106750571489
0.203196564608741 0.505241523709208 0.367580358392469
0.801737418302143 0.333918008465051 0.009734756397829
0.549797925473158 0.042040090173990 0.361304991265674
0.802635711462271 0.793948580273476 0.499558100115594
0.326647236795546 0.419623761231607 0.107285127801075
0.752336266597499 0.299859343990649 0.608328970489900
0.333967828840348 0.384200283881078 0.452841118201092
0.351571557254173 0.522075286289572 0.504780553294940
0.879771250143984 0.462769831533921 0.189665115049477
0.394708688666010 0.529996981355050 0.858488365462867
0.349021697426025 0.812120822869768 0.273637756133467
0.564097028920234 0.434289237567358 0.033434715447576
0.419862554517031 0.334393284478385 0.132588755786167
0.912860591365282 0.566406014168363 0.092182130138868
0.458359885741088 0.784655007418159 0.074851490537381
0.241763505265871 0.654829189654397 0.237601533301886
0.479882376631782 0.758745399777776 0.035742702820384
0.480769233956476 0.281744262968934 0.840093148867129
0.938373277270117 0.076440439566086 0.601415375524189
0.345536253670033 0.544497909427806 0.509115319023207
0.898919645025039 0.379135383014663 0.041784809011129
0.864802735982193 0.169292673684481 0.326210883436918
0.853722405867744 0.774599708411743 0.447806569664674
0.724627568815968 0.037984187438583 0.757266078157964
0.404340479625568 0.289243347741476 0.216608049057367
0.679660703734795 0.328057341408744 0.600981251004318
0.835181436158620 0.238882073744854 0.488614274532571
0.783653882010354 0.194188787339675 0.066522131279255
0.976972536592602 0.611414838887854 0.178892347486225
0.754056614014865 0.031840923833808 0.532234069573962
0.944498078696779 0.553659817982132 0.420228647553093
0.506256860465405 0.800324986030739 0.549475940430340
0.874877872735725 0.802120758643280 0.284172079184312
0.336656078850914 0.435503760460889 0.005836706977612
0.503053782402570 0.274133424106770 0.730466988393973
0.364537142847672 0.833499251761411 0.336195747393957
0.754602716590994 0.488620993069962 0.036347237412981
0.355913031300213 0.641808361004245 0.007426121077977
0.792360861930518 0.088377574679349 0.360260500629805
0.603640573349697 0.705480446245641 0.624825702245007
0.486238049344801 0.548196648661841 0.612579503102370
0.712970474827489 0.736524319359790 0.012169741391376
0.423548539734970 0.398609496528558 0.123338663777687
0.517955032306235 0.823740036866004 0.529966254917918
0.860676719705187 0.360848817269218 0.425710927497317
0.332651879081785 0.351614975048009 0.004211655789796
0.861103491824621 0.772241954026680 0.142124592441309
0.857328837447886 0.223980243932203 0.581011523090241
0.730909820150771 0.390981958779440 0.008328063364037
0.492940111855730 0.202503548513478 0.766058719552968
0.345927392389203 0.615298556830808 0.499953347812790
0.698906054611915 0.785556105048844 0.022503848805445
0.398727804742226 0.176024894186861 0.834864216217337
0.868676003722447 0.476513657762734 0.462657515926538
0.485432983103968 0.289813678957476 0.003778827164014
0.615029173810611 0.046785785393612 0.501961983651000
0.613195296722639 0.264193732779273 0.003916191937465
0.264928530171960 0.618631140855112 0.409762358941928
0.336206932270850 0.313594178511102 0.452419952622112
0.750041641357285 0.251749208408532 0.746082512168445
0.937097933014180 0.521586522713698 0.148889807533810
0.515472188131094 0.080400002569060 0.508849660734927
0.865126751319472 0.181601680164934 0.515575351057709
0.504754440294580 0.285979357606664 0.858877133689618
0.829303582482620 0.778929858252140 0.104742583598128
0.928428243861733 0.698914572347928 0.150910754365867
0.284375251194755 0.160123700216443 0.739590082781714
0.850614013207561 0.280453952819222 0.255331956229881
0.843664671472480 0.232434376585591 0.562557991260490
0.631134642045921 0.072700531153058 0.283752209499422
0.876865056313203 0.213176706337228 0.326144144891326
0.713734521223833 0.007802876062146 0.617575174816113
0.914020748583158 0.442393335859575 0.282798431449794
0.613762945075671 0.968644628417652 0.106385777303193
0.439696436577105 0.759606676985722 0.548698403976840
0.935851592688689 0.492080231729170 0.182722362466760
0.744565699288907 0.865571390953057 0.066752152480082
0.552483275090679 0.207276218858182 0.174414385461105
0.365342623430369 0.728671346636780 0.470219057936833
0.856900407960999 0.348093436695162 0.206577828807207
0.984932043790963 0.540715097720602 0.350136328058180
0.617071050514074 0.231093327510132 0.795378323320392
0.509789116565139 0.155989441165325 0.800918270551584
0.636887364479135 0.546162274645309 0.034820674175941
0.543779858510540 0.352486528494082 0.617387270173183
0.732882087421161 0.051347792856730 0.402520254824614
0.098703690045768 0.161144259115344 0.838453842844332
0.555925710161237 0.771064682496355 0.011149872743200
0.495519307087815 0.063059492996101 0.557970526184836
0.425896200733717 0.309241549399803 0.585948879569971
0.529569092748769 0.226496637743338 0.003216409129315
0.532485065047529 0.557879819395115 0.036638165635999
0.438593209931277 0.810088696780326 0.501365872369983
0.674716776619186 0.092679464864900 0.261898899526739
0.405369704814570 0.392088581172647 0.923943975906737
0.616841505121680 0.558123366238704 0.631979037617214
0.564011260154483 0.904536959132686 0.317779148545748
0.860186138938771 0.309519007829209 0.078939388441661
0.440765687190124 0.679481563786537 0.009823525142937
0.542189697306695 0.399852279076937 0.603378655069278
0.305547291737277 0.496233116461891 0.971762467797032
0.743880377846632 0.562712605732856 0.036773586568317
0.561664593576209 0.484624820968664 0.033943353877574
0.808395063365301 0.851999691712856 0.353079951481725
0.800931937719446 0.271786588224716 0.608575190366842
0.833530698174327 0.834037469733267 0.388198681298175
0.827956971426157 0.313345622001426 0.140249433694283
0.332629504621155 0.542738874366566 0.005929363404988
0.430084699763742 0.835873062768547 0.459236355531135
0.349800660129457 0.513767590029480 0.924650238185334
0.376743654147189 0.402425834462649 0.181465993147312
0.948691218355676 0.114883204131048 0.575458616918156
0.269451485954225 0.366536072807147 0.030239040623688
0.757716081353539 0.190035902606953 0.052129931524956
0.319690436906921 0.134822317420150 0.873812313067278
0.964144512497794 0.456191754603434 0.338747362855529
0.339381619629197 0.126911540857681 0.793764935179378
0.760878338455980 0.686868252204574 0.603080599428770
0.723634805710957 0.683223398994213 0.619376467600056
0.294898705844623 0.757760807712317 0.252955286470347
0.790006571461956 0.287137361190502 0.165965155999730
0.721426363578356 0.939562874520710 0.107845601994640
0.695920307143337 0.143503169577197 0.215950382807114
0.983451185970716 0.585749491005080 0.359118817937248
0.296210512184551 0.161261151324029 0.880304742454009
0.499607701123612 0.059950930962948 0.403927595805450
0.506786480522203 0.566626632155634 0.621819227958137
0.984516873243709 0.617829658507762 0.350281468196167
0.680682470770253 0.000000000000000 0.590827920815688
0.467765694648278 0.253183385892010 0.167550034470783
0.712242890515135 0.808621121522938 0.547078536365380
0.328265656114484 0.319190232435661 0.033253290275092
0.834508544972252 0.026423419546690 0.524620691800101
0.901727225492300 0.733273816787520 0.418560831860334
0.788167722271621 0.796090533657891 0.076216714960320
0.607179052864221 0.231901938997681 0.084503309713504
0.374810335011970 0.179611943557762 0.282376617923770
0.877568608797472 0.637253290001862 0.453495544716121
0.545313917826064 0.284412873557312 0.848477583624045
0.258870023443463 0.501078362738361 0.107449706350399
0.140712982905083 0.149430632181324 0.783974455335714
0.605433016251317 0.975610633337401 0.116108222707175
0.432416201429811 0.788448223816466 0.088617125499567
0.616251482308017 0.126409931984149 0.217644764328701
0.764957119760544 0.166345962401814 0.225009978384487
0.875125649170115 0.607960476303637 0.010615964378463
0.436427445010620 0.373189294728932 0.577998569332926
0.874714622041496 0.682117418865889 0.471638061964472
0.870020128727730 0.418010391845805 0.109945598366137
0.386248656496508 0.150158318293631 0.851373906913336
0.410235735659835 0.302042402327568 0.188471596593354
0.973419140770991 0.489442449855169 0.367516211635056
0.680809259380493 0.000964681854090 0.573352789023259
0.666538496916882 0.142919350798656 0.202933126681423
0.331939211076518 0.784932465847565 0.188982826811530
0.641975482563251 0.353080623510748 0.612728530922625
0.582921657069128 0.249624596175955 0.127501723539139
0.759001369814201 0.864267593240804 0.412551770968862
0.789770396599745 0.239451762695971 0.207418864071077
0.436298336085944 0.674185447562284 0.587380842538501
0.514639046085588 0.889969749324016 0.236711902009673
0.717865509603201 0.692333284093026 0.010886806243099
0.758797513617345 0.834481917032222 0.073380002799131
0.860909579832490 0.335162717808078 0.243070206358175
0.818280431545338 0.794584422507531 0.473834602445611
0.643978411131543 0.222107399533716 0.060430133166077
0.840218175851659 0.245311145222513 0.095757501930882
0.453575148769446 0.429056705566510 0.857697870068475
0.126852418886365 0.180913814475366 0.911671858882317
0.507025158009270 0.064353656735111 0.651184188018682
0.012370590677474 0.189227291119403 0.904343577808073
0.491016405451745 0.362735149230246 0.758639725892482
0.407376776801496 0.825881990250419 0.156359989010818
0.445117768387870 0.245559701732188 0.002479045392578
0.802916635245742 0.553573882940802 0.579540683299035
0.454624013762779 0.451152544332334 0.800633173851967
0.381679294425527 0.241731160765323 0.520583981712343
0.787725205161374 0.181151452482033 0.780449623413178
0.689539442445015 0.579423374588148 0.035804257789619
0.606163915298579 0.162214272410227 0.012273412918509
0.424378880829479 0.573916916614750 0.584847369594178
0.477945245551419 0.596616484370484 0.039247448384538
0.987539082796277 0.572836370175788 0.242362648185489
0.460561781272245 0.626260412719414 0.606177786301881
0.424853716605082 0.439492867648476 0.561618468045844
0.840051610422521 0.230598783550312 0.553324745875169
0.767889002786863 0.078873338942447 0.769680743532193
0.824910730045503 0.158392796357074 0.274383543181783
0.657498386138442 0.044324626362404 0.344287958033766
0.253849028741238 0.686742368287529 0.310141148784192
0.626827972716417 0.124163289423824 0.221054261677302
0.497880309894567 0.883231748437691 0.224755335195965
0.884077090789760 0.206920404113064 0.390197597930716
0.206465721911972 0.151506432282802 0.750235852724228
0.384555655642135 0.180006936460735 0.721356852947122
0.793101705182505 0.167715271132120 0.239257038000798
0.514103492653304 0.086672361415295 0.740788784814195
0.247761518082293 0.159284260014515 0.893438629047725
0.361454439383028 0.365776273450697 0.274671231669578
0.416817141820104 0.208076480902254 0.752335201148680
0.346773478474526 0.463471827050912 0.962218207830310
0.427755767017228 0.392169506547890 0.132234976699824
0.327667346463551 0.499111105402090 0.473517108393765
0.632043708094500 0.297564531564108 0.674575076328162
0.856544073958365 0.730892298601789 0.029445305494073
0.748390074689264 0.237064464126295 0.007779900164319
0.358979989774043 0.370670974123148 0.094234826376110
0.684836662293979 0.366211086776408 0.602387296091065
0.081448837481033 0.120255107611481 0.947710673502076
0.344481339285492 0.634657961836621 0.481486857042148
0.342060754118765 0.666818797808592 0.462910215273926
0.859352483109354 0.111179262551462 0.495495472146052
0.576061315966332 0.672140155042743 0.634123742334787
0.703720707066103 0.391944713838881 0.006369967395305
0.319909209410864 0.713484351216129 0.066859711689483
0.410392356884249 0.308517716876794 0.179285003395243
0.629734166547198 0.576668379373021 0.034966462260972
0.872401765759286 0.169082010802895 0.719050161468403
0.626734331455260 0.908735444672092 0.269106662450691
0.946052689368734 0.611206533118389 0.419944198800520
0.423457384524994 0.808762419797173 0.117794180917182
0.690604301034280 0.103549798007694 0.250583152340126
0.860442202210431 0.296674994701315 0.443970723160738
0.701610049613295 0.433272532257754 0.030768413359113
0.851348226989732 0.129757416553735 0.747488557255193
0.819898850864276 0.380134747172429 0.497348600693563
0.832187401852771 0.315831829363066 0.113707578906991
0.646700637174918 0.858131394549740 0.488504123534992
0.696683524855954 0.087617133058016 0.788626715115827
0.425518320954180 0.196215775310053 0.716089043474655
0.493289236309938 0.258965696632605 0.003113385549226
0.675319229688755 0.450287413535090 0.595298755423317
0.790367048883225 0.226952003545302 0.699845011066935
0.518916802639855 0.668649573857250 0.006911651124577
0.820823661903669 0.033773498866402 0.679965995739100
0.319552875408230 0.770637576349238 0.214753624615767
0.223618646378279 0.135362462186655 0.766253103666343
0.966886626950618 0.662795265223283 0.367290078116496
0.754993855310164 0.669847140957874 0.025676197535728
0.868654457945544 0.322578179692869 0.398603414940104
0.217335566359750 0.577094779028767 0.375969328778698
0.409953154508910 0.624404267207882 0.037194752147297
0.106324265599764 0.137904546593106 0.902069283681583
0.419703447241436 0.175178389071221 0.711410865812759
0.539056278397956 0.888468776292719 0.416815910469269
0.496896662310553 0.755688218935253 0.579437011771902
0.937971365662495 0.407180521390632 0.021314218031589
0.478886133055117 0.937729208280079 0.158630395455040
0.508023705326696 0.515675758996525 0.035020241865673
0.346731215604446 0.409702695585713 0.484091604161375
0.872594020383962 0.540801161214908 0.472072186484343
0.410065026812062 0.402545295730865 0.154177703364659
0.649763452230112 0.777238132550627 0.583013679458005
0.880127584146618 0.415924957771084 0.011750519653530
0.599826142154064 0.388701276180322 0.005080552776583
0.439691381606370 0.480470651706177 0.574791231462235
0.491200953317760 0.087876608070701 0.490512759373202
0.883512757171636 0.206152897578019 0.572218881695237
0.499024970726747 0.445529515282693 0.810890175567731
0.728614366226829 0.830988638334222 0.046388472762898
0.721413933322450 0.866573966435237 0.443186707236791
0.305984836745162 0.770344703562643 0.252336497042770
0.920874791689628 0.082089159211042 0.574713477816885
0.599909010526769 0.578934225653344 0.035217217767226
0.476014578204126 0.094646079936287 0.653892606665043
0.808650297953234 0.064994637088228 0.503018137333672
0.647453081999084 0.005357131388127 0.608348408901237
0.247727542049484 0.468814186346733 0.154160208794456
0.209155629289992 0.455345249487794 0.238693972019055
0.488944779002480 0.678258691449528 0.008232815148484
0.857981011541078 0.027515269847591 0.530795627134986
0.646552302787775 0.021592945362526 0.741708869617504
0.709573700230291 0.041900718694404 0.410554798177454
0.488771998445389 0.302925516541532 0.003838438292115
0.875767050374855 0.575709734808830 0.449867041266451
0.708595024748640 0.273471891277401 0.112592462043262
0.634310986771722 0.769705007739292 0.589266368438240
0.493389341304166 0.400093128408018 0.034816786493673
0.616572182910387 0.938607826639863 0.262936910692163
0.911198251808809 0.656376983795657 0.427731874329375
0.873627388991600 0.694869588115531 0.471599185141797
0.706713912688225 0.264887378852787 0.733739120969121
0.447604565384389 0.414305165736453 0.790907488712763
0.309921913132400 0.514199192030777 0.990254876449458
0.282460991785258 0.395395603054612 0.003674507689836
0.198320589558751 0.545371710800968 0.285517865195913
0.390254513633090 0.853021535141523 0.322649766479885
0.729744690830532 0.850385680062171 0.479037617213620
0.741773035128732 0.879786639605906 0.220065494487267
0.438200082371162 0.226914752182095 0.004248588771337
0.927559783315779 0.669097553613061 0.410506850096155
0.896589386384561 0.587688231780551 0.013124167388048
0.414167011260983 0.275848913608951 0.024568208089489
0.481275891187197 0.871868798129725 0.424764276865180
0.900205762169428 0.151361922684153 0.510281623703458
0.734986115404153 0.055191748180785 0.514033237091599
0.549827923824077 0.227975131503735 0.168416987616436
0.422564063467229 0.119339237888490 0.758166724549936
0.492896605960059 0.249488436020784 0.132128065437468
0.380073305362495 0.216912118896075 0.497005188759933
0.345450899246146 0.364902793209976 0.470886443392754
0.842192929173231 0.377955542424807 0.010349010196095
0.222983874643355 0.099807320535135 0.865985112768704
0.693105268522532 0.106982061541821 0.793661263652244
0.737662763842540 0.906753415243515 0.216915823903544
0.548691466960794 0.362104445115254 0.004415111161795
0.357964023524674 0.759637505700101 0.451299004234982
0.723288415913048 0.276784693543311 0.674095595515170
0.640699309623587 0.031609708475970 0.379726773690240
0.290393152420627 0.109540844835227 0.861119030463878
0.731823029617985 0.889309501024412 0.333677177231659
0.344667793124080 0.628080527171016 0.509406895193270
0.554767458915933 0.522411833088202 0.035438815656474
0.584566428530586 0.386334530086898 0.004805175282635
0.851909245872948 0.322361094162455 0.087561619763940
0.308818106407963 0.510414325075948 0.905315498374949
0.332065999686758 0.471963853332391 0.004425478314508
0.403447987251530 0.651415487575386 0.022182467071331
0.213366171307157 0.137233379790493 0.905652430838132
0.412885037535229 0.429272506567158 0.962140454184960
0.469690726946226 0.305753408820866 0.768909686549138
0.500087094659714 0.062441634178768 0.333542404246386
0.571119626296786 0.320801675026815 0.752821161432118
0.344182184460026 0.634548841033019 0.500050539869478
0.463959633158288 0.204531178748740 0.003115977337404
0.576445410873822 0.353449283553523 0.004382713809566
0.323601824098620 0.566683665277234 0.005497830673295
0.282934170193406 0.548697037232095 0.934751732610397
0.482614298274763 0.276444293155383 0.003188547406398
0.520721286316029 0.514385448846813 0.612702613040841
0.854621527711598 0.376233630273798 0.084290783082880
0.903777389033034 0.259295820782407 0.037201879564787
0.580816800402409 0.052619477324838 0.758801712653628
0.733810213195463 0.200212589676234 0.056701197924496
0.925298305424647 0.502298666015838 0.129874505616405
0.547240524623094 0.873382616458680 0.461789266886796
0.876236085364368 0.396094387247189 0.093755993510162
0.865739977277492 0.341635463297773 0.343535043567959
0.474981126728116 0.077624133745239 0.323520607307806
0.979944196437820 0.637076217573652 0.259854626601077
0.195355559183349 0.536437613600601 0.348585790780491
0.212247448275633 0.590400195248524 0.275712482570224
0.318463984990880 0.407176667801335 0.217349300476371
0.688118249853116 0.020874893223463 0.715181917612237
0.704628944430955 0.878276032601365 0.425421943115433
0.628409101267637 0.387039094663421 0.005861976912351
0.542524817005916 0.335603311517736 0.003755501070409
0.841337727566910 0.624188209301280 0.543929513728702
0.425391532343940 0.627731006621751 0.583804174852398
0.733438134202015 0.196330740724089 0.793246577543710
0.798548643320436 0.309524145948272 0.523959785814625
0.819556604485002 0.139774821932061 0.765196949983672
0.874481761914193 0.367553420381634 0.398869073228383
0.926353219809187 0.438104933236565 0.093175432958215
0.907141844964876 0.764904077739741 0.266472757714457
0.624651849249171 0.446131317477954 0.603709108062016
0.905938596193193 0.082716652001619 0.528547250890279
0.489802052318118 0.086146988741097 0.668847224454040
0.226068235475453 0.208495879870776 0.843222733092470
0.983387377323733 0.482992183636375 0.341013233670439
0.475764730060419 0.248008657730621 0.176708765945977
0.613754658238401 0.033762580363394 0.758918343121653
0.641819690022565 0.905178581750686 0.294565149779439
0.234489319509784 0.412900532437588 0.298814386497820
0.790917294877989 0.064033166558552 0.505577528159779
0.936679447732017 0.516999466920147 0.058288020236682
0.341119369404831 0.505300612078433 0.989082092298761
0.725779439196575 0.199922285949171 0.047470544327353
0.405932381065240 0.849127483156603 0.379525262159374
0.308018426611355 0.770094862523202 0.307185862313845
0.213879126534204 0.462083892639002 0.220322081516922
0.510015861006536 0.552017482450112 0.619609728536106
0.073368342458522 0.187780268338268 0.800691489085980
0.847271931736350 0.367292660839183 0.452679131439946
0.863809972877182 0.399417465751225 0.444216943037679
0.235734002467820 0.552529752920700 0.137080972646268
0.237694668166032 0.667349693960783 0.283609661149614
0.779572614654609 0.845700357741540 0.150251144274481
0.831701793188717 0.418720094541391 0.213963129221375
0.300542870709594 0.119328961650364 0.870838236132637
0.746203178333567 0.640312718771476 0.039586324688856
0.766614487214653 0.605779259982402 0.039927144834307
0.434608484229734 0.432048375390979 0.566776126520732
0.568142165665479 0.246756883473882 0.132714457512816
0.153143238810905 0.105429065055010 0.916168611371730
0.383667306686732 0.207254381852163 0.762333024046611
0.559902646235746 0.236238511486907 0.106770657847675
0.332036995756311 0.326878143083771 0.349962030303187
0.881651533520671 0.698121375217567 0.067192108523355
0.481319065609377 0.889656966326052 0.343806533379640
0.563584239429932 0.992296032729818 0.189631421803159
0.708434260105591 0.274717885150194 0.139556130356578
0.844296128472496 0.193408435506972 0.691039410731040
0.663686996212087 0.020467055022833 0.652700384103008
0.355769669015433 0.459543092762317 0.876442978068288
0.767566644817039 0.868420477973526 0.163913755656578
0.896046598543340 0.468141735014355 0.199578704831611
0.757992033034648 0.501716774031946 0.036419807481974
0.802178278044936 0.097395615899909 0.404359128537143
0.613674275916876 0.850446695226045 0.502214682998388
0.166053302594692 0.136493490645412 0.922136203652348
0.606705874456073 0.019024528095877 0.529208156875755
0.919380674929748 0.716263431364363 0.386891772109249
0.633874270447564 0.139700961470530 0.205398565186064
0.595586513338079 0.538370188633196 0.627754422886526
0.406853877369725 0.389267753807025 0.818237895053313
0.821330816344626 0.251438994470099 0.617860271515730
0.861009021879736 0.087394909408538 0.724220778884183
0.555661360052306 0.896321749015729 0.399032355883618
0.828037353747681 0.247496772618964 0.553376581638736
0.582653743620171 0.187457209102178 0.076856886640369
0.270487340613044 0.693911971175152 0.153547250890279
0.628564065124597 0.255368371023578 0.789430169451111
0.527575859780084 0.534944990012781 0.619551413302094
0.825662346185942 0.341776119307125 0.497879917270121
0.945537248090506 0.617804674403818 0.113082310008968
0.250399218385509 0.661255114034130 0.227974984060503
0.256151940818723 0.103242153128793 0.847862033931691
0.366995018782117 0.204200412334055 0.812730345174350
0.836615887690152 0.087622271177079 0.741320101390753
0.386788129602820 0.282462957372880 0.245487048834473
0.828232923107266 0.325706651937392 0.009968665280924
0.596627422967632 0.239038786376277 0.799382636055920
0.753908279627722 0.381096217702105 0.567748047087608
0.751450403693278 0.250329803017360 0.008241886407108
0.005410476053941 0.195288987084053 0.922524971879098
0.387855474243267 0.134097200367376 0.374111016654831
0.748109150905793 0.875396759131401 0.211450390582478
0.777402291973452 0.900398846492270 0.164570126012741
0.875437234251487 0.180365320265384 0.335026850925528
0.468904057484133 0.893070604178575 0.103974118403251
0.815370094295921 0.280342198729600 0.010338643043381
0.846739088099853 0.011243489039750 0.582236143004505
0.406720459289669 0.861287484184227 0.350577579995542
0.443040258284144 0.747634859568783 0.558339856000249
0.056758205833436 0.167930429867886 0.893289601227471
0.905917050416289 0.506629458121118 0.011052680686513
0.217265128242950 0.609597877956827 0.302848504797400
0.824132596025799 0.237278980597178 0.635970391411851
0.351455541532385 0.333567974103880 0.293669686963824
0.429782727413603 0.159152595713524 0.513514879455932
0.616524119254218 0.403102139384325 0.605899169072710
0.790365391515770 0.584326810063006 0.040324984319682
0.763245887864175 0.354431948824334 0.559810695791454
0.531046055755499 0.965162910487543 0.133245774089375
0.819479536898386 0.412344331049011 0.158344002861334
0.422574007671954 0.366546991310156 0.114059414152200
0.415073591258381 0.862861675412173 0.314357988150344
0.375798954698347 0.430149840397177 0.037026933862749
0.816741565864197 0.512392500915227 0.039614186411773
0.899450002610354 0.455159634936641 0.236378209281712
0.826958407535055 0.495764905362270 0.534339897468860
0.379629959568521 0.459363258595110 0.981306727763753
0.580331357475100 0.366254760788444 0.003910360414064
0.734488905167920 0.930883949158312 0.108218171545276
0.844940015728417 0.508611487549695 0.516728696797068
0.197682503088919 0.493681398082197 0.358267415520664
0.239549262347180 0.554142287362154 0.403590663342266
0.515297352438361 0.049231530067631 0.624799784363224
0.368336657736218 0.630959607961515 0.007869316856472
0.269502035661576 0.437225030347016 0.051054339430947
0.822144583764594 0.482865015189564 0.534378774291535
0.546476643963495 0.634766825734269 0.635186375487904
0.539035229831288 0.975565032530716 0.152111400239481
0.613320427965424 0.625892716073963 0.639715525329546
0.192815643559926 0.203819549258505 0.802123452054510
0.373254895656288 0.824190906813788 0.256393293488910
0.134932913908876 0.204850384395532 0.873695682599252
0.517320136268752 0.237289899100187 0.168810939419543
