ply
format ascii 1.0
element vertex 886
property double x
property double y
property double z
end_header
0.507544329348598 0.134833899584772 0.227911321004377
0.627033970286492 0.229786058240628 0.792039929799524
0.587196910715441 0.139821205286848 0.041508514624929
0.212981330891298 0.173748044929745 0.785460657257306
0.187923228997950 0.517106503471973 0.258107259362681
0.899628260039954 0.183042726773751 0.500621542641558
0.346555548510548 0.513062122989648 0.504022106373122
0.967631176389232 0.477435680635964 0.071274125213117
0.489603858050939 0.291224064411516 0.733457633136543
0.857269468246287 0.335892395475990 0.402719035625609
0.857534682871763 0.327780594895150 0.449380833928957
0.214718567240076 0.405350481149263 0.248962026862239
0.478004219060635 0.084869911542961 0.558483946192770
0.665181246519024 0.867880532150740 0.475440890212977
0.348196682417867 0.376461259089905 0.272288282785005
0.169051489064835 0.533767478090020 0.250407181753732
0.494776555457850 0.553149604201043 0.616923018135637
0.410827035110020 0.339589860230590 0.159756548913636
0.857624323727824 0.214686873146127 0.353039169719917
0.570887155120119 0.011066755648434 0.570089314478614
0.739628117959423 0.868419430119067 0.375781678841307
0.647840801852678 0.107561004473226 0.811303896737254
0.838963017896600 0.136850011561752 0.376998744583073
0.870511081250019 0.439218285287540 0.164884466559517
0.722887529480733 0.911614127998033 0.222533366093334
0.401707755744936 0.158523883910923 0.386541094148549
0.481116803290343 0.270237959423386 0.192178256793861
0.917228516206861 0.468152343034548 0.192131370889788
0.571086921196636 0.249400026255620 0.164439943360117
0.355955718247736 0.543466866356549 -0.020975685394042
0.903412568111340 0.805311803618098 0.390036429253825
0.844957213120374 0.277379972151398 0.304183199326019
0.769989001484736 0.560726170710216 0.029487389823889
0.536514780764641 0.296483076452212 0.708235956795074
0.262124852888599 0.623762563889037 0.349552253133549
0.238118181884607 0.119673902175324 0.803708893037551
0.928240242056102 0.752815290335261 0.289772809830012
0.417977480770564 0.757043761446480 0.115269597233851
0.974713764813122 0.610492899210137 0.239234086806716
0.521756356437194 0.271625151084284 0.697491378727061
0.334597455988746 0.426066444241717 0.149645516930619
0.243160352079760 0.130149630135799 0.755360007780873
0.813825303616616 0.451501824224285 0.188367457542649
0.721373475696551 0.958138630976445 0.130947043803957
0.438963639975311 0.050597773820290 0.374139772793341
0.534583868200712 0.980084339732268 0.149024903144390
0.250590972731516 0.542623557220875 0.902068131580756
0.465165039171729 0.653397212645317 0.579502958688532
0.331168483489667 0.435237120441112 0.870869197076397
0.822163444082038 0.490549985388712 0.540139981607235
0.806318874586437 0.142521631918411 0.733033674806555
0.251264575698621 0.392891123710918 0.019140180957210
0.504005794255431 0.243810740625345 0.836234079474240
0.931021474234177 0.638172431808573 0.136104353710874
0.449743808186731 0.639712318065069 0.044280073001066
0.671102589714428 0.285500129757009 0.730132358488535
0.432300392093432 0.115771461535512 0.330445553669436
0.553743119201687 0.469167763411658 0.620792647068564
0.469833742456463 0.441698287273797 0.072881972835942
0.560109137222818 0.643333893070712 0.674734575969699
0.826188628961553 0.053444521047710 0.598796769037751
0.408911745904583 0.423388291776881 0.856405481737373
0.322678618201852 0.463275894438795 0.425288995569102
0.511310304207640 0.881206522058412 0.179857322956396
0.022014486487883 0.213854558653607 0.848591566659596
0.806911497653946 0.717852342295162 0.033242430842384
0.449364253439136 0.071803078666380 0.458422145433026
0.537877944529295 0.922558471641545 0.326375511326352
0.741769845999254 0.933254556949125 0.085169693265496
0.924761814475525 0.525823226285080 0.089247510576874
0.434244981456874 0.836450787959574 0.465478802659063
0.249057065534724 0.531774738545852 0.234167593911451
0.687701083821976 0.554342809663423 0.620795126451378
0.562891399429684 0.336497407266858 0.733913810353457
0.536074360660279 0.826073314379115 0.516969292559970
0.776483140309044 0.884951948605496 0.113717847675457
0.650002638382923 0.828335389408177 0.062996559076058
0.967110349291686 0.601607405489405 0.117006267391203
0.414310889193439 0.872915829384589 0.348558912354859
0.302509513070458 0.531615239796930 0.006589125927882
0.912537370760288 0.266175370799190 0.039345945548667
0.952721641442344 0.470915658648907 0.101114084779389
0.934610710104226 0.114843365535494 0.556984467400816
0.622315700119436 0.904678028576583 0.310796321728793
0.874847975777556 0.280891284271404 0.279220801364595
0.477580846900303 0.127761112292468 0.258740566442902
0.881230223230246 0.597819207357505 0.057156373711555
0.516360605783684 0.483966536188538 0.033372260586982
0.300418594658352 0.409920981531259 -0.019197150176846
0.775238579503641 0.612207661324426 0.612862990665355
0.835305455127050 0.402710843936972 0.490083491292572
0.547296529216647 0.611505962326836 -0.027163593538778
0.312186010907272 0.496268465516156 0.405414150659927
0.294808597066730 0.705738506355283 0.414246697050708
0.620587447561233 0.173182466708737 0.049167548029038
0.861299474893661 0.801831272190040 0.144570792571145
0.234669945738964 0.663542602125992 0.370022710369033
0.863873138356838 0.269366285900531 0.332091931920877
0.281945826984954 0.200712129368847 0.754815210510732
0.122521752232577 0.139360947210905 0.803095091213758
0.332466129042634 0.679976423376459 0.478578114957962
0.641841934729894 0.048932208210115 0.753976061039788
0.662939951126941 0.185637281377491 0.171506171203697
0.463493473645303 0.135973759945599 0.250658336513158
0.090112180100618 0.154218170746076 0.985477541171593
0.878056844337404 0.241742427635397 0.034718430610858
0.373016711132931 0.438005176541522 0.886388845236934
0.567151701505439 0.042727935099516 0.569120042978628
0.708262229502680 0.875515540776948 0.471525391057083
0.875998840678518 0.050823308201548 0.703429945415086
0.712147425912773 0.021205108089955 0.583447315871174
0.414515524389326 0.725064067081244 0.047910695450598
0.325974124528653 0.254402248458957 0.287747439130224
0.825097570967632 0.799005465001536 0.074926528372069
0.534243328247472 0.517889801811348 0.033898922081086
0.342757741673792 0.136483878580024 0.738317319036677
0.370266475573425 0.168016068337963 0.431295484156919
0.557945191646461 0.095450589121866 0.314278103615207
0.451009928634880 0.687433067882357 0.580897169855118
0.636309761993651 0.049978437548322 0.453284476402484
0.561445298250656 0.025672848569801 0.605585243492250
0.809948813617913 0.611352667850527 0.594410784926146
0.351914225423776 0.570999917527066 0.008060673976936
0.874019000093154 0.807277751582894 0.314692693962725
0.473463041200903 0.499637845682412 0.020588558208681
0.262983495366692 0.608131718246482 0.416071997154690
0.380198261422771 0.757475159306708 0.196535871397144
0.732502855514040 0.501960447799933 0.568970513059673
0.899734312077082 0.749604169904401 0.165210387949761
0.856022078630667 0.185685833656793 0.018262056425933
0.538015681406577 0.423113490743363 0.599819833459923
0.856969924778597 0.346982543685110 0.236202757083228
0.413938033848912 0.109191753159088 0.287138542198003
0.555315094542314 0.087206722435570 0.163717384397770
0.552698407075616 1.005631934626100 0.202009902937386
0.962646796386072 0.394701029039012 0.048405403101251
0.312608765534538 0.396182301856351 0.423991122134029
0.362832929924942 0.437377373652900 0.947250707496755
0.385240388977570 0.300329575937289 0.502351343261054
0.983518048125831 0.583220244493629 0.210374179992720
0.363092302374612 0.717215577413449 0.453778973553071
0.867918782737893 0.601135486431731 0.557361423369456
0.683703452937296 0.028393978323316 0.479725471044976
0.560403496030023 0.046066863186771 0.340831857033681
0.363300015584096 0.239628982557250 0.459029309133665
0.527240056110680 0.972549353278085 0.227104887396064
0.829660084356326 0.013849653379441 0.665652096728354
0.389666419275743 0.106067120352402 0.434298056524413
0.609891910029191 0.888050681577837 0.347938732948627
0.296772182719106 0.407560996705890 0.008972495664908
0.912373515848537 0.138973134009020 0.607064262470839
0.478598759157004 0.685436679945722 0.625077287907932
0.602382068971057 0.378466260804113 0.619343539313115
0.704723638427550 0.617184868957723 0.645743952903066
0.739134404742646 0.275160106545493 0.629997014759289
0.400236912395279 0.116065737083440 0.331527582291077
0.799860297084940 0.357900771536372 -0.015481739942394
0.246695962823415 0.529460403901756 0.418154422149587
0.503342576323449 0.034663529634294 0.419294862817831
0.370625352543990 0.433859163000078 0.153914766373967
0.592214747863886 0.935944208362605 0.099037483429103
-0.027592331812524 0.198983053229336 0.834499483486874
0.857411196693890 0.674655171502406 0.067951114103408
0.820879715058148 0.397438417636242 0.452996905296355
0.949361140938753 0.043861441908146 0.639861002156448
0.775203382663910 0.884519251106290 0.192452796369997
0.395594174152810 0.778236413044338 0.413392592843450
0.869506592372665 0.590804753940493 0.436524185152682
0.858275781077913 0.689093699186794 0.001590725855549
0.946793512641012 0.107865810904682 0.640395665868028
0.386907690848808 0.747506604997659 0.491122734876240
0.851677332183492 0.213070192301550 0.036016214937533
0.938363706312490 0.549943528351695 0.164867646567404
0.913806062485018 0.792200494485417 0.317831696636278
0.769480437967621 0.241924402759376 0.766402447746642
0.736901631660292 0.264384044019526 0.117117700145145
0.500739313903457 0.388198374678817 0.809249980979910
0.631633941908742 0.018582581385452 0.320140013739538
0.474551454553859 0.850574454980535 0.080123343503537
0.235772219980237 0.092998092148969 0.870246256614520
0.492261768333944 0.928263444544124 0.208996267828310
0.755441029867404 0.826412547935262 0.486514079736578
0.391454669935633 0.797586056062693 0.062196539748734
0.857821770082019 0.232163015490354 0.387407830234854
0.331207993790960 0.114775173981597 0.785755863312999
0.725957639234247 0.179232564144724 0.036869208010073
0.480004579873416 0.050115195547890 0.559059936880296
0.675284755802595 0.888220566942338 0.311208694228386
0.391875725942798 0.467968329469045 0.969069068187322
0.670326602361001 0.286001446526828 0.006781778317804
0.386698977787523 0.236406082410624 0.510709559715135
0.572954213529782 0.062695425295360 0.749991017506364
0.525355833583166 0.641468783967938 0.638455603818224
0.701695113962034 0.756138276412913 0.017920481465096
0.839816678564608 0.540356494626543 0.476194247206825
0.630328719941138 0.007982827179200 0.568325739077581
0.591665758887175 0.688641984562391 0.627672654157258
0.761129871515025 0.045163848173724 0.407996323602044
0.680591399772560 0.858946894594445 0.476314286138345
0.607029508015073 0.047919442666342 0.455716174397532
0.470496240372656 0.780441790256822 0.569495799973441
0.712212782431184 0.589954232212991 0.019340685764462
0.039592801851402 0.188680829135201 0.937587214230506
0.582775141080770 0.213077661330084 0.819100735077017
0.620028976997030 0.396343408141579 0.625625878600850
0.752871555856040 0.233146684306436 0.192871796852376
0.243859038670638 0.608095309147820 0.209709121068670
0.902612651135650 0.355510792891049 0.051343036570957
0.603236433749219 0.287865389237941 0.710407212680790
0.691622194711415 0.055538800525654 0.391180370405179
0.365813002087197 0.297893849266830 0.241648658510714
0.762643123166144 0.238318405759614 0.794909431873787
0.207713680420800 0.589556449439698 0.310769923358103
0.490935565412224 0.323676773961374 0.657079647611609
0.818461953362573 0.843632482227642 0.333611223996191
0.554100641853027 0.340967691408543 0.844543828977929
0.339408996354792 0.461592067969101 0.972808269523608
0.428113856955885 0.345946002355104 0.765946654885798
0.581178707401923 0.161101698843718 0.085738762274269
0.327390084450769 0.736128428671763 0.068084775245200
0.756327525653037 0.081792796764536 0.284690453077451
0.323421011821657 0.329483655505824 -0.010240885660481
0.229567761976121 0.112494308601342 0.891007134970840
0.662072979378362 0.609741147727055 0.030482020083132
0.580916389079365 0.755646927792885 0.038392406033387
0.445473541862524 0.406399962803972 0.886879366849554
0.535885311674661 0.158645737034551 0.048675423347183
0.477300746128051 0.901972409872403 0.160502231469692
0.956651602640664 0.726191565667510 0.247427445882351
0.442089864984050 0.410621781735269 0.899157223006777
0.266551432042545 0.709350897577445 0.101433759447794
0.342688072167369 0.236799552263734 0.378254232935493
0.574239470537731 0.363453063207952 0.776562223402190
0.340289273229207 0.555250223108727 0.022535126946713
0.763275840950306 0.690388267301903 0.543374957248384
0.456359752559548 0.728092634504730 0.567342687717137
0.816806267466162 0.235577692906621 0.087088597426268
0.947799067353724 0.462891371068082 0.380005874999471
0.305394018883700 0.224435938424447 0.415252005052982
0.915818556530645 0.675454597769495 0.423888815119999
0.836709497203946 0.012456075646546 0.521407464734114
0.744671815404783 0.041357267696623 0.549126990310951
0.624307215808216 0.138612708060846 0.828557455758472
0.371256941501040 0.415336411386866 0.781076073051059
0.696516031274207 0.020306925271197 0.641441959636249
0.453999947728803 0.484656411976341 0.600864074786675
0.978505724480132 0.482371952986186 0.260996299517722
0.811957147619945 0.807046758330233 0.264135016549078
0.129045980918776 0.177448094686406 0.784023114122468
0.854179021664269 0.380153009583490 0.087047024306965
0.490108234778728 0.918537147703529 0.292395384650972
0.393170429857825 0.460738779586978 0.885567339692191
0.710894634163046 0.491947098013338 0.600907214909173
0.802977901608201 0.807598936005267 0.134097962708199
0.669620502786465 0.172227563325886 0.784251143809369
0.740017190547065 0.020756922974338 0.679763582199696
0.367117277370173 0.517149319758132 0.972333238149590
0.364303615198536 0.367347351145949 0.301844149422386
0.321433805108151 0.253709719245940 0.394329699973561
0.983644637831826 0.668653902359731 0.220866452063525
0.319373340494224 0.385049967529767 0.459348972305750
0.261259818145899 0.576843324440072 0.191241763434143
0.255336020999154 0.728455058858232 0.273556517084053
0.134607336897230 0.186276101322489 0.737583430099470
0.538461444096363 0.364103457151681 0.873114552249357
0.734212508859005 0.400660730090980 0.522298367585687
0.445684811638600 0.491540172892964 0.576599703218764
0.984581638521372 0.548181588582224 0.178699839791660
0.375564370958913 0.499453849876220 0.814851274772693
0.613579422433673 0.919830686809683 0.289409529566396
0.470541368284476 0.134318556965724 0.759712402164833
0.771256392427830 0.722407919598005 0.516132000069010
0.365755911388316 0.535001523431815 0.878533445098584
0.961322798593527 0.655275272539963 0.419991823431580
0.583804149157862 0.175806664214000 0.215712963648314
0.674864527770501 0.726544080049556 0.590805397018151
0.835322391842090 0.819339914531509 0.380179512016867
0.639976975433597 0.273021545215068 0.807943600363175
0.808853456462866 0.371613725866736 0.156476569755429
0.207415832265210 0.116884502796602 0.901729488821204
0.781655381952610 0.230797066616122 0.761863148709577
0.549749964287974 0.381810635282438 0.814973729987950
0.425614064270549 0.739142724247957 0.515688613745766
0.482458493635184 0.891970509544818 0.261824551100869
0.463938537602853 0.326404207001032 0.896025881004497
0.661368916901341 0.147385566736672 0.788328695352891
0.964140920290188 0.565944345990241 0.214816768518639
0.295608105568078 0.707614410647128 0.390447800033410
0.978297397176799 0.708047525898687 0.379424514566922
0.877224144986630 0.221081316811875 0.375391591812536
0.270918337750540 0.654334158767284 0.322931841118916
0.230743512700601 0.679255357004504 0.289375498687239
0.829474599481848 0.667497764477249 0.499340228282155
0.567125194931764 0.332838841723004 0.751636303464459
0.809166069343575 0.817974529321226 0.430233621660786
0.493483267967548 0.265102991920264 0.654265426592257
0.933197465616456 0.074013751027777 0.592072303060289
0.827524790846525 0.307519864418103 0.522564829408195
0.501901976563208 0.385559763534544 0.907100703863205
0.203638832653540 0.642607715085881 0.296464207612049
0.430257788273705 0.226725229997549 0.586938988068648
0.857238349091082 0.247792552790837 0.407579887647520
0.250451645629085 0.536280903352893 0.938495849190895
0.598758561425116 0.894318466915737 0.032459698969469
0.905368351293100 0.249309277284444 0.024053459658248
0.908386682929232 0.326636266360624 0.043770169098928
0.184207505585713 0.567521584673637 0.279100076549732
0.757711931994985 0.292477899800695 0.159523086723600
0.854000031463398 0.851876564348240 0.341428440406785
0.384850781889217 0.309790038668614 0.565452346312620
0.657802609847446 0.756696152680804 0.013201322385178
0.463943668727069 0.116618196509462 0.618706366680108
0.781881802144598 0.845919911739357 0.119208537823155
0.470470748146231 0.150223713557155 0.261998448582934
0.859095288162063 0.234048628918285 0.039298177038642
0.316286548975884 0.332807388811767 0.060031892177987
0.632202950620024 0.578311960993166 0.041586600130340
0.891344425283234 0.765501052218739 0.369620371243559
0.895056724932359 0.207266488440098 0.486845842407993
0.902120316904890 0.192886611658983 0.553906398158060
0.306554120423333 0.225908844501725 0.841585734345985
0.361957344971536 0.698038056804336 0.072565281746995
0.227491314854099 0.544190469606068 0.211540602057080
0.456772596511066 0.364647580614861 0.130871757808050
0.741885276669524 0.757742470333668 0.015131225476798
0.344560497633569 0.785371819220213 0.116655677630836
0.815315810248083 0.252696096982132 0.107980794288715
0.224843958086722 0.504471018353128 0.140329236781454
0.158355217574465 0.118780409329358 0.896471301063041
0.775336392554691 0.788321865956498 0.504303673778985
0.223285732301680 0.121415730336585 0.901639758166347
0.303395580848017 0.792898055416310 0.319462721878327
0.426002954072804 0.428057367789563 0.567675020101585
0.525092114549723 0.588413234366586 0.006343417750816
0.563122393217812 0.819165523855082 0.506197262434818
0.209955210183398 0.498963392612023 0.343971665110425
0.755497140802124 0.634380136321569 0.630933194983134
0.723351493743603 0.246190913850274 0.141250002506099
0.374474819000407 0.338660952031037 0.107833553189426
0.523279329963678 0.251797328798810 0.110516158696734
0.197234026931344 0.642706369347491 0.319828978610112
0.687652945284211 0.243514715684613 0.041230132008307
0.339535486898196 0.376701584612103 0.342701907957354
0.265117763321124 0.579519867986244 0.081105460566773
0.207539883527729 0.172040790617177 0.838692664801046
0.841714417596794 0.230507138945105 0.298501095898738
0.627663260767747 0.882697987091716 0.447197238797603
0.509107064263485 0.065659330418406 0.521437888174454
0.717734151643183 0.745182852498335 0.046699725384541
0.235287078240488 0.526922370989926 0.410122166739078
0.656129048064809 0.294441063764012 0.158969798547565
0.702416298391284 0.051741073405656 0.315055173955563
0.896659953061943 0.528209441770778 0.057749355625061
0.338286725595439 0.163083667114585 0.443668787422765
0.277684150214948 0.499259358647586 0.420919618479029
0.655205268681810 0.279053980705570 0.062161896462138
0.233355018045775 0.177207318038549 0.875175179933090
0.938246461533385 0.507277217199045 0.437758793485713
0.337175558715805 0.770220975656887 0.131586180646771
0.632072330408660 1.000169939775037 0.197714886866026
0.348475983183354 0.526355771436900 0.909965547931729
0.449291637383601 0.407754766860105 0.119473038518082
0.562270446101398 0.573935705674151 0.628437295459662
0.447769019560479 0.559148529920221 0.011074696940782
0.238180298136753 0.622495967496658 0.402883038498894
0.808134358468015 0.133474257789862 0.734303355652332
0.891758099860586 0.702223278668353 0.412391991513539
0.865248716569203 0.800992012814592 0.300311692888194
0.864803990433511 0.536326559770737 0.537709496923622
0.360299909090511 0.367527563439960 0.026502747705456
0.985125565988762 0.462934461073957 0.348931805378526
0.718217113188661 0.333299859937863 0.600520603348694
0.878210664412898 0.415510909478773 0.370666507209372
0.362575335132444 0.608557698317971 -0.014159463459481
0.350088620613071 0.623170944614370 0.580267484322770
0.266688193816070 0.406897081433451 0.143570698217365
0.813438779573168 0.252042117458386 0.010094246038819
1.004933219815300 0.562831601153668 0.310397416623370
0.540503810653810 0.273366750245600 0.818739199023738
0.330553518208721 0.468818272728005 0.438461695556392
0.600754927722321 0.298713143583068 0.646333021489255
0.520319572755392 0.751246729156704 0.587890399648378
0.820496847831315 0.305260900089484 0.206847546199530
0.457583626097165 0.519586026714672 0.034570874577581
0.359915242235055 0.308528692036400 0.515045386616265
0.404940033236966 0.688086790486996 0.047223566423778
0.813795931099625 0.167102987034769 0.436822983899879
0.701884568564965 0.065524068098016 0.446755995718408
0.493519918001484 0.436771163797209 0.587905825030458
0.799260715131441 0.278143629783276 0.061648789901246
0.502591597742749 0.421604663210451 0.027196884113001
0.766740998321416 0.421420044073845 0.522564928985429
0.696200112793707 0.109485846089917 0.768972343142648
0.491533360470473 0.660547677449240 0.014406226546434
0.638182608519829 0.236278120261763 0.068166430539141
0.468975599915390 0.151511797248458 0.528930762000605
0.729536712575220 0.049888135031830 0.766602641268489
0.592489539841327 0.331192618532105 0.631891969579077
0.804336352824052 0.737554537064918 0.556980233858285
0.586660544608651 0.094608446621180 0.794006413814843
0.787608950079668 0.770371777096220 0.060916518056498
0.337753041098730 0.494345410373436 0.887012160308501
0.294322157561882 0.742509691549100 0.041873352890376
0.549963142707082 0.904896048748432 0.269311631760315
0.383297572725360 0.679434692042399 0.552979462430288
0.633603138256730 0.579990883238221 0.617200897161634
0.399074912053361 0.338744422022357 0.041496860370386
0.444538580818143 0.639668981664495 0.002786355159123
0.709204182817852 0.425528124478843 0.593062326178539
0.299035159511808 0.419000040330844 0.362069130673444
0.423268390184803 0.155741998328066 0.706232748280726
0.416075064770006 0.367795998716355 0.875571654765602
0.453618289607086 0.499374872752747 0.608287924932363
0.364866322033777 0.135081380397953 0.842933099289504
0.811074952250202 0.237374484726511 0.641303771728407
-0.006395987494267 0.181566183113147 0.985521797471762
0.458201642452553 0.167564895007912 0.201295947322207
0.670225201987936 0.016350004568285 0.377015717309161
0.739028117601776 0.455723651856823 0.038834101328772
0.835420860616143 0.308476062934272 0.223318023866325
0.289625139025278 0.774250086770396 0.349406305505172
0.507709516646634 0.048271219386407 0.407009030929435
0.470312866793982 0.196843369228349 0.758203578259953
0.590782246653537 0.699615774249688 0.616215728455904
0.302501362231492 0.617376899976381 0.047504742366462
0.205356703687666 0.169113633326547 0.890710029758999
0.286189961632874 0.499468540421677 0.944998045723781
0.215892052450213 0.577356075477082 0.379768293403887
0.505668593269992 0.742422968117830 0.021058393791602
0.085825570883931 0.125514253719014 0.962309121578436
0.421464516345217 0.719594151875864 0.026945957369283
0.426816112227905 0.280706166436834 0.203030775061101
0.615959465625371 0.198348765942252 0.161174203743859
0.728625842297551 0.390553702249370 -0.003500616821474
0.573982597613272 0.065791585217335 0.502639587109441
0.981714447777633 0.677186878415958 0.174534212646561
0.843277378159489 0.615554270685176 0.539656873107960
0.495013264398823 0.265553853805823 0.180071916710088
0.627049697199623 0.237981466016358 0.059309308680535
0.812356511373068 0.798407848617727 0.089471873611179
0.881096242660072 0.186725625703305 0.652743995294174
0.371779796325172 0.822026844304159 0.381543805924891
-0.011400147923854 0.194862117397615 0.943547130802122
0.588573659210994 0.322803117229004 0.653656694198181
0.463546167670910 0.080047861083401 0.350932101755778
0.236663027464938 0.534462220706996 0.921375726286585
0.485226243574170 0.842878526460627 0.170746500654754
0.606798393047540 0.041714389817442 0.563333870051206
0.540273304918361 0.411122133165886 0.607932276756061
0.635495003945237 0.198477608825211 0.033791455453745
0.324241524171908 0.462749233143626 0.482205463150729
0.922013263793203 0.102774781905208 0.553728617535941
0.432700993281998 0.628538478727665 0.576308234272517
0.340551161587610 0.804877105631900 0.212588506643619
0.326789525756313 0.542906242330485 0.518839050617190
0.703332360860312 0.189344625437710 0.802629498408091
0.462151320656228 0.080899441962682 0.281949742868375
0.425400587547043 0.428495541621082 0.884062106267004
0.567065957084863 0.254032556249044 0.805319159136214
0.058877899428310 0.172625787614256 0.977018985079577
0.386450654655968 0.847624253919388 0.156482123890307
0.861135330866370 0.349990212088109 0.370279523009411
0.435709940532834 0.406499353085350 0.842547139376466
0.894747292751814 0.564031676731330 0.038949847734248
0.796466983709026 0.053010694051617 0.541903433656384
0.818833938845806 0.846801309866711 0.221283406668802
0.808430608714851 -0.001119875211199 0.588467882083347
0.648224809479196 0.362166812449453 -0.005434993227019
0.581183834525320 0.046627378396934 0.283906892296939
0.789299520128026 0.238994103968766 0.688840246340447
0.411827744711617 0.135065018665854 0.317629498699002
0.863418314913517 0.757422644929253 0.154638530462212
0.784773742333103 0.654902665525681 0.052095659036527
0.779736583176637 0.551582319128107 0.610119908916719
0.094955872455054 0.172359824786980 0.803410841736767
0.740166201581875 0.074250797171105 0.448040779362859
0.636423482063218 0.081104439369977 0.234421987738925
0.310143012034399 0.738277400913109 0.191292872423121
0.377365525888057 0.518580549257545 0.874563981011135
0.543162242518217 0.093564385682253 0.261975793794210
0.850369488557301 0.599718194283659 0.451645344044143
0.484146468910558 0.243949248223779 -0.021870229310366
0.929095142871866 0.414691759332889 0.074635731231227
0.589142890867176 0.927685277723923 0.067487615174452
0.386975469883978 0.204719675937486 0.258764870965172
0.953818876191635 0.453819661669006 0.363650178146484
0.492868111099348 0.939938783828180 0.209200880798050
0.796745848116381 0.680485048759997 0.002505404621606
0.743870229662039 0.644830340300871 0.016821114178278
0.205962839335026 0.527842260484789 0.299046648477298
0.392928532940123 0.855290895289919 0.271320842818597
0.709554892978084 0.961772943925350 0.200493987037372
0.228857764561546 0.481683637196859 0.274749556015458
0.593731292733268 0.026445239564835 0.479971928948348
0.774784398727951 0.424608369424673 0.544186911566495
1.006950520657317 0.582254128499942 0.315992928068823
0.962120010729102 0.713726935656895 0.312166399329559
0.304243729789084 0.521971672562928 0.923991298252664
0.260012422191932 0.115719258585325 0.700271229431817
0.399150658674869 0.400809610269243 0.120151257431841
0.454280099674666 0.766739675695332 0.049610014777306
0.907600733938968 0.728065320805910 0.378913285266496
0.337224747098421 0.393239802941306 0.453012186841488
0.452901985434333 0.453851837257883 0.551034234017407
0.559440168651610 0.216421019379224 0.789846996278606
0.851771549332874 0.488584830525937 0.474277851936076
0.370535759479594 0.453733407319614 0.040964171121290
0.851950134924594 0.697244902556623 0.106907915919111
0.534338026629618 0.575656158959146 0.625148060151076
0.832968269942176 0.572909088990223 0.002675872819195
0.896167421370079 0.511393544969953 0.025616656707848
0.064343936026341 0.178624912496243 0.821647892408328
0.293705222106505 0.556493941914259 0.940513139666154
0.429886495953423 0.356047665652537 0.156642639131548
0.444964488153788 0.754333764999693 0.562482968225792
0.447479001945200 0.872617558917750 0.318597633629944
0.811637895340032 0.401636651265021 0.523812406105975
0.432561409049063 0.169407791735449 0.673151331648574
0.048865571564233 0.209732633193548 0.821966858490410
0.734647738260834 0.212291294868168 0.077056580624981
0.139498046892196 0.170675251667195 0.913767369419704
0.297019604741487 0.224820660575748 0.734341687416592
0.299922621496071 0.177025227158700 0.775208934539747
0.164436236949986 0.514898982139744 0.248464806025044
0.683798246039268 0.867411930186471 0.383040999014006
0.281520985955503 0.493805861051060 0.442994863843425
0.930573220697302 0.234757723584935 0.064633341362198
0.782339136922626 0.296377589957786 0.669866345865696
0.764838006139942 0.635762319248102 0.552349855786555
0.652099706156821 0.058636581561138 0.443098661117344
0.662955184904812 0.898237433490236 0.270953422082988
0.007457360880312 0.197511521285002 0.906883824957866
0.891702679500129 0.190734774254697 0.607835377791178
0.821214886189979 0.015292381275708 0.731023023585339
0.442083489384618 0.600820659588469 -0.018418471319255
0.988388905642419 0.623891512818924 0.305673995939942
0.075648049462428 0.126097376521934 0.954733432713973
0.327280176279554 0.376753716918825 0.065611068809184
0.195291193416066 0.185784819299622 0.800664528776417
0.625586635649483 0.527434779347383 -0.001339472789366
0.625378499219790 0.527483954773876 0.050057839282719
0.045179750395095 0.205335480928805 0.996051404601114
0.271865807367723 0.655115167411251 0.112136191978661
0.807764168671197 0.560280599099978 0.573527034282438
0.583766722447257 0.119976306088822 0.231493887468711
0.368812875745969 0.429893385577942 0.855661304667993
0.953229793395379 0.638866387677298 0.290944369863965
0.739566558289805 0.429022594989446 0.602263609672691
0.439097351666151 0.842525530108883 0.091063350403213
0.518702593293501 0.382109951478475 0.624634785205271
0.413202169683027 0.719757976932548 0.003547352455931
0.646012476577588 0.112690820183424 0.813696448418711
0.628240915181910 0.484591836122668 0.584320191808976
0.396583921576724 0.324561915258692 0.018784042276097
0.668227234419410 0.523426512212429 0.042592746091323
0.479777389849354 0.824430799027670 0.113608174531620
0.488910193869078 0.878649143459989 0.050629075025941
0.421397805365777 0.344885442377445 0.027440588821828
0.519280068854583 0.899610710582943 0.372119546257006
0.425302254211857 0.676806967788460 0.575929519598244
0.303718578987299 0.503206645594706 0.075615736266264
0.244412160190885 0.593036856946525 0.151519576082372
0.449021861830650 0.106478666011706 0.426972465206531
0.423591216044876 0.857831712260602 0.274285738879598
0.433975377997450 0.327360673526640 0.052514230715819
0.654481447820372 0.557811340944613 0.008060571608523
0.694562982218080 0.514011341636946 0.022169855259225
0.540252976716888 0.362371773476363 -0.011131939560319
0.293113403245370 0.302693696824040 -0.012414588441425
0.502759709752560 0.743014356225452 0.638259127981519
0.065927596055278 0.126100751492829 0.933371675812911
0.385786175514504 0.447528476378250 0.546801859856332
0.772657764900601 0.857767795154185 0.378145247880980
0.834524035426245 0.674951438313978 0.478151864978835
0.837393313641401 0.022460991486183 0.579082120009521
0.305739144038946 0.405799004841137 0.438127192052330
0.472055779780484 0.463785342854654 0.569551597974513
0.512377296177198 0.108445729356355 0.637792942227026
0.687139882691573 0.015881812071863 0.337375567457150
0.420171903998748 0.264622754426361 0.612183478206622
0.417644445253508 0.454155757396418 0.577949170380588
0.813002072912429 0.815630076610406 0.166001743781737
0.244122554297297 0.453362102307047 0.359856427279089
0.493350074998999 0.167923351896932 0.773065474333536
0.782585704680571 0.512698423891029 0.533450614711295
0.446849940617557 0.372412617192004 0.598546093831081
0.933405191285907 0.171769765673557 0.543781418124829
0.840800061331771 0.827085061965848 0.311298112525361
0.321954019668612 0.751592282026474 0.110316095162529
0.848462170262171 0.373276152858902 0.247864083597057
0.795181522052397 0.125644978844761 0.292788804570932
0.444651146753086 0.899499530282317 0.325895188813143
0.527769925093711 0.477276026926460 0.030383537878301
0.587566487922735 0.466869589205507 0.033109470830213
0.914761997942019 0.416434444228973 0.035474697418339
0.570524410460246 0.581596766768910 0.619713111643560
0.366200711769977 0.236497113953912 0.779539006864537
0.416926486939097 0.239190171375358 0.032254495026331
0.502661782013901 0.901224686474995 0.263332983528778
0.834785600993245 0.563139512589436 0.526675991554865
0.989085225920943 0.507161187611572 0.317479227986750
0.871360031983316 0.668632787402732 0.000096079476418
0.113814499617836 0.217237065420692 0.840247295814278
0.829921540810563 0.125447729008502 0.418333577214401
0.050933845473324 0.154190036143082 0.873382827470528
0.377532372347907 0.357548206059831 0.268311158462447
0.226419140237622 0.557213214197431 0.144897304938006
0.965062127944585 0.435358088210025 0.055658362272949
0.719220662562777 0.885570713177695 0.036931665897752
0.858286160148862 0.792908234471918 0.208496583820631
0.475288542174382 0.583202486547158 0.646525316476301
0.438895161748753 0.672776900828295 0.572247766947094
0.906348174245792 0.412649259586439 0.050647365934089
0.786869333304165 0.313457806674766 0.002701168703983
0.386354706351940 0.382489313391394 0.835774499057653
0.769725930943401 0.775556464593203 0.540428810033726
0.172513830508224 0.187880024361084 0.796767771065177
0.555970483434038 0.252611095025653 0.159235237765193
0.695285711132908 0.329189742767477 0.570553572787052
0.318200183226175 0.517000762425144 0.901718976454271
1.004315990656212 0.570811643901966 0.320420357005860
0.296224197069728 0.507938820493597 0.057797395572012
0.757653155816779 0.200190899778167 0.762689251228887
0.056252164401798 0.178657922931265 0.799939125341345
0.813629670701291 0.221477502438835 0.500241905679214
0.207246010006565 0.581927385128901 0.359394798892009
0.287598710457198 0.571228981090856 0.904401643274680
0.375368691585128 0.813311326378805 0.330846184665200
0.863733810791174 -0.003751269249546 0.523376003963609
0.837522429804107 0.736486366397506 0.522953433051997
0.325348085161721 0.706532767205988 0.441650779113290
0.682587617792150 0.591201083100087 0.058604456035837
0.365924789042225 0.718199645452853 0.461105014629663
0.859531268921471 0.651926167627517 0.076190773988032
0.332042494223800 0.788538640108714 0.178451532623470
0.643783154984915 0.031689057765620 0.505938622176263
0.269155307006157 0.575675642386973 0.442465857623611
0.890129748660350 0.594869371392859 0.082532995615964
0.033855623007782 0.230954424550769 0.845487611250837
0.971954068679408 0.639082209912194 0.206193060519923
0.388338515564955 0.130320533046486 0.336740882713646
0.737479305273042 0.834401850872784 0.112296250061906
0.386326324398179 0.185776146370778 0.432263628722897
0.469382057089480 0.088953027563582 0.709217566180091
0.415193376383962 0.154293066523063 0.535216728105842
0.895318733405163 0.538347661452773 0.441764318473574
0.798672181534109 0.119909479506409 0.749087919511958
0.985376297067070 0.452237429205244 0.260448344925262
0.921179837742828 0.509800018069620 0.238919430474292
0.743409058922218 0.477185299528977 0.044541183103862
0.342457848496211 0.324968459199039 0.417723441266034
0.243493412659936 0.386349434781531 0.268323739045073
0.593394459785225 0.135901314212670 0.751696822884972
1.022515660210396 0.533425568769997 0.379363846598907
0.449834339475290 0.072849819378494 0.272750178727598
0.378668635665916 0.337755148637174 0.250773711923710
0.881052443290566 0.750619240579535 0.110262977872987
0.768780322658087 0.233883635539292 0.749310851656887
0.636832194641735 0.195756526117820 0.072282433928262
0.281466939525990 0.584547019676092 0.418585767374422
0.845023115765864 0.368713886667717 0.121934280988760
0.915458891092296 0.058403182555690 0.561244840424018
0.671998610460082 0.572492528037659 0.658164991875459
0.478097663696170 0.370195322648988 0.767672163842317
0.701626525668638 0.033221802309089 0.431039350246908
0.769340776230187 0.841434850605055 0.371802031287810
0.424106184443279 0.819369512417105 0.220283496039714
0.735025544530475 0.254463395657348 0.697430421250098
0.343043670070032 0.266512610138735 0.369798071563742
0.866841313801578 0.782427982009664 0.424785687699408
0.787071370798020 0.263239137748171 0.490646872095192
0.750385262187329 0.363515716554050 0.571586713520227
0.755667267397705 0.640367789357760 0.593642488315662
0.650836380179055 0.865764545893096 0.404250435335481
1.033797251739137 0.556553537349577 0.298860661234360
0.995457843893995 0.627365720077686 0.267386504909766
0.418683630123009 0.810708478899914 0.396974506510815
0.853158283754391 0.100322489837853 0.524031087918288
0.692255604529416 0.493937135871626 0.593391366209570
0.732445618583350 0.358889572150151 0.570095195398555
0.784616098907264 0.413974027141951 0.030167125310140
0.388375366950194 0.435004497731927 0.512864551322861
0.760347698260378 0.417085585496745 0.013424034765841
0.093522189773432 0.195281675777976 0.788835320967102
0.936874647041816 0.429700486069389 0.043570785722160
0.706799450177915 0.239069518777540 0.078877162351004
0.648064927569124 0.084659787608984 0.236362272320246
0.459288472239090 0.837840654827390 0.465384286533692
0.843807940021292 0.175080320435593 0.510930416705477
0.374064391387370 0.394706730311486 0.195302893830202
0.733789526713947 0.960391566668545 0.123104045751666
0.830843025472743 0.097755187682122 0.352952870763498
0.570669027121980 0.827926484245721 0.003885173965591
0.469564106195454 0.296561283644131 0.721920783815826
0.506056136247154 0.285421285538396 0.596843773185016
0.858029991447029 0.788583359749674 0.318363205528563
0.364280993510018 0.433271657143718 0.954384464757826
0.768214003371708 0.790567268618772 0.489986052015411
0.739032801902281 0.469611405598025 0.601117322861020
0.608408472234717 0.279925008122419 0.081506026538057
0.845592828788856 0.802894182552547 0.490619228857750
0.311297963889292 0.763092536216897 0.322715898783887
0.978921128591081 0.567608903260981 0.153238181147662
0.487394808635853 0.310924529332472 0.776745948597702
0.887470435948421 0.704677556555728 0.100525219358122
0.203729243399692 0.079082873033847 0.838302710076048
0.178767246934793 0.215129357047191 0.860593081072645
0.433978687290163 0.224407780662198 0.542290230947287
0.515246710636725 0.171190270768861 0.199621514673365
0.849006142087191 0.374353100092894 0.081904549758316
0.828984726598961 0.807610251446953 0.236895167544572
0.877775615948195 0.729310939695656 0.069721520101761
0.858928722700501 0.172278889126627 0.731401153722257
0.275922948937491 0.687129255750075 0.195310364706717
0.622759590431238 0.680918534090354 0.613214474294116
0.713648942174966 0.024087629619217 0.527515488428820
0.905425187829125 0.097314876386476 0.552307053436218
0.702367952729164 0.590935752716792 0.020700424562610
0.365313855807793 0.464162813368783 0.979485578817323
0.826157886649798 0.332943444112785 0.498610299661631
0.684173980236144 0.029052464568011 0.773010094749277
0.820053027643598 0.828831812994386 0.386807850235707
0.373540753622166 0.102302441741214 0.780772353657154
0.735372139958586 0.371222464631369 0.572235262671327
0.344768859013640 0.694854856184734 0.460581796099823
0.180750413367368 0.112870021925392 0.907101051377447
0.292718061494423 0.391530005136419 0.423298769265767
0.729655402644604 0.599745202547329 0.016212379248577
0.535755981275182 0.197192638410762 0.017363275503238
0.768425777543193 0.337598138253671 0.044050522703132
0.960976234155274 0.107123980461103 0.588616871589243
0.360654392738797 0.815384645280289 0.354421391244231
0.387450669946890 0.487690001108205 0.841345757125257
0.739802090636393 0.688786990995839 0.015214133742232
0.507773458665999 0.102671211246116 0.288884995675150
0.411658899905295 0.678295986999409 0.042637971052381
0.682001249087504 0.012594797072803 0.730035912384443
0.432207428429635 0.852786418480245 0.489320225805478
0.461127970814066 0.252026010575073 0.130742961825250
0.631137581210060 -0.003711538870036 0.336923421487285
0.149025859721886 0.156832537670484 0.759850694518501
0.579804617066202 0.149698787213903 0.200226400498702
0.443344947525227 0.858488828494174 0.448296475195524
0.487453209379316 0.761232115667317 0.577849090743327
0.583970473060820 0.477093156114196 0.618035523469042
0.903025586172209 0.528301056055449 0.017654360007502
0.919281904330309 0.729124766016670 0.240512135351697
0.889558249524742 0.303632632990684 0.052741023016558
0.405937077578394 0.832784251646201 0.383429432247147
0.343761706367560 0.786650587343160 0.480929992894936
0.486434287071942 0.901422478916179 0.080563592546447
0.431912370072914 0.446439164784339 0.937417227830083
0.489986579677951 0.217530526576709 0.703178504084459
0.653938144977921 0.797970984603162 -0.005363628192161
0.250260388652902 0.621562340639234 0.375552349432263
0.715278694917524 0.220863200272532 0.162478787587619
0.363520628069077 0.801730441438745 0.443146073379593
0.491275733098042 0.040002773273870 0.525013086210694
0.399275244221945 0.312699804203239 -0.001791288149524
0.009906312434615 0.159035974657775 0.951575479422914
0.833484454773624 0.328795604676462 0.484681843386239
0.881025537505977 0.303075002873659 0.447709226682089
0.318213160728239 0.601162484436832 0.110207091430668
0.503689952891772 0.227253174564595 0.042457599319832
0.581061282360043 0.957310999918752 0.277155884154001
0.474937779512059 0.380235787496684 0.587229613581821
0.475290751165438 0.206055514962366 0.031685888618037
0.458500803594464 0.286230753157378 0.772648387708527
0.341567406765334 0.409270403635094 0.497006870811068
0.707037582685633 0.043695906394655 0.363206717242342
0.433694693765120 0.226024912269120 0.762327953437370
0.414007116753636 0.414291986965671 0.881596977618402
0.297414459123905 0.711035349698266 0.455458621628447
0.857845868385332 0.848873807331372 0.343305501348439
0.537742782695466 0.255314183677966 0.788829393112458
0.041628565510978 0.173545239932595 0.945331534603617
0.810712178328792 0.362408361324504 0.162176546628634
0.989633954111722 0.680600910197052 0.391421235610920
0.348780706113978 0.435027166049830 0.498550974058277
0.369246336102650 0.217533478334945 0.272614490222779
0.396226512966425 0.440940579330664 0.832613681328634
0.650985882837261 0.107168770263012 0.799485591561043
0.536417187919021 0.308825263252755 0.638221887478051
0.619681223494659 0.997344562658183 0.143842871524443
0.333310973736656 0.795435633316083 0.168772838188132
0.733444309968072 0.235587440149287 0.757585699575809
0.472666918683355 0.192024409908441 0.726389725410557
0.140618257787260 0.099085534389972 0.893507600634958
0.371243352048381 0.869738170104452 0.311749746156187
0.100751310533391 0.168785641678477 0.788983220639191
0.574715167027902 0.988480463231858 0.116041802462998
0.185913442373676 0.590628655440957 0.300574752014526
0.509350535371282 0.193474611166662 0.032343969939170
0.307938306284665 0.673067881306447 0.421732480030656
0.255507396445141 0.622792190190618 0.243038845756258
0.590595363155976 0.905716262997343 0.045441017473714
0.868801546620375 0.288023152399644 0.215791988136955
0.184052167506576 0.207214901849215 0.828359451538257
0.801699816192002 0.803656446281231 0.497712862996887
0.444864839586696 0.503807698733899 0.017401261729736
0.400421940792489 0.240630253971553 0.554367247540398
0.505904525738224 0.272250382185506 0.625355576861811
0.736007174608918 0.810728900394679 0.056910889204530
0.299228155189300 0.829051613484077 0.296798078521827
0.289226573790436 0.730336632336919 0.449486947713131
0.856272409791599 0.830377552078273 0.222582200862312
0.936895199312274 0.077165570802408 0.646574418560930
0.602325427921037 -0.007087016577849 0.587141767825213
0.643565628924680 0.782704503400003 0.578678670802749
0.245978365865084 0.437594736136182 0.374180449648214
0.321493895994858 0.659502230751065 0.069841127542735
0.830822883012769 0.796315531323763 0.242543001946266
0.750373011608295 0.027439962072132 0.653168195996036
0.840208092310309 0.371369382664589 0.099956842847312
0.468502916795530 0.246768297625723 0.017014757749813
0.642452524437203 0.093517543276258 0.240503907021818
0.466448765297587 0.361126198976822 0.859633353689264
0.206365521331821 0.509857670469450 0.198356730033782
0.306219088203037 0.639749491783825 0.027925701230134
0.769072999135059 0.820765697541848 0.165132020289616
0.638030867827878 0.880678158004910 0.021817256529021
0.484210511001789 0.404096058135810 0.828681685697068
0.381547431087700 0.730089939116428 0.083815563165107
0.768829567322980 0.963840824511735 0.168144617625299
0.585323554732682 0.952196145645985 0.175763202511530
0.455223159217963 0.214552999417872 0.172767466067676
0.628556384979805 0.042587237443347 0.452483108034646
0.895210122488388 0.746377862803655 0.135754605215682
0.723107841758526 0.719518287885704 0.584226829338839
0.549927686431823 0.315570472617697 -0.014644600841570
0.598596219878511 0.912312348584512 0.382815931416220
0.308956549031559 0.403183245508168 0.168105459428715
0.728977604614848 0.903180448316976 0.358293993449575
0.282664983734446 0.467841761912803 0.136046788497196
0.839356336467897 0.612562340964250 0.544149872838334
0.506463848768334 0.576197613660155 0.058854198019131
0.306185560700382 0.622133214458508 0.109809382900489
0.854618358900572 0.412344712317752 0.229072217292846
0.852407141316798 0.249481470638648 0.297240485513980
0.383538010152427 0.686788416995484 0.554402896771932
0.720050166572179 0.213362659277604 0.725965592027536
0.955520012794415 0.067572505729949 0.522611515849219
0.497312544381778 0.179357066716279 0.087214814645598
0.848026447878227 0.231079182769256 0.491133475411265
0.508637557824147 0.886334325231574 0.432652861481634
0.340765883339223 0.543372414077195 0.906307632589110
0.435512320608156 0.554007599888554 0.536617827678764
0.830503840293531 0.148845873701984 0.419462286403010
0.338870279280215 0.264494062450547 0.452520092660460
0.471383443664416 0.375298149030430 0.935575714325773
0.104899064266807 0.118259438834647 0.783216548908978
0.931957604392716 0.679883499748692 0.334576227477871
0.527969786113185 0.071630090708223 0.708394855783247
0.757565869340784 0.890933310899251 0.109340571774136
0.609265560224368 0.150455229879261 0.185185423708358
0.652546231636101 0.750469220028162 0.001586538189464
0.759509474589305 0.870791114475846 0.259253743736280
0.555389777763533 0.282009855487211 0.700316086817215
0.698448987562004 0.821861898406126 0.576813164455430
0.392782306449209 0.494893065138713 0.883355286417609
0.535940455333598 0.033885606166755 0.527238137940058
0.969536860940411 0.557782246557692 0.142186099252363
0.948620632269994 0.451568475677183 0.333180779803311
0.919014501544813 0.499341743139734 0.056455204208274
0.458530663698678 0.343830795630269 0.119365469867023
0.521071218837230 0.057888183915585 0.541334013355931
0.744728874590537 0.178502381049171 0.208414434770370
0.909950667534657 0.529424714409285 0.038457237092412
0.823141563091460 0.186783501959906 0.264818769398972
0.385925130412795 0.401626000691834 0.141195375836930
0.364038433071925 0.114689195702384 0.830390022079161
0.772064534134348 0.852037494304389 0.148227661051967
0.289877270265981 0.414065169756565 0.236271087123962
0.710747823337725 0.402830939442691 0.575552553471433
0.368625988394659 0.633100488810535 0.565226684287246
0.429877855392526 0.493221308045264 0.824676946910199
0.333925769230003 0.441040631815224 0.479771185112395
0.495555994123492 0.461876420153844 0.053479545505094
0.979114722889903 0.509023383823481 0.310544417765175
0.935997356917948 0.587430354691817 0.083899546587432
0.554664101877042 0.891221241905927 0.055945634071948
0.814631751571335 0.198495761658622 0.761544162427532
0.788475027215606 0.538535544197590 0.039801935711509
0.758886878950772 0.575147416500594 0.045559955059865
0.667895583345764 1.024173069810971 0.181373211638263
0.837314045481073 0.257288366977629 0.008769468014091
