ply
format ascii 1.0
element vertex 886
property double x
property double y
property double z
end_header
0.616931002964202 0.226829330952671 0.161737301533820
0.655071171501898 0.997246610447081 0.208083009791776
0.062015375397872 0.170653632971310 0.810274625875376
0.861171443890239 0.741564171895773 0.059792553274206
0.870869529547961 0.731137001522168 0.068745237589222
0.865121779217109 0.735855721616709 0.077539174878316
0.858980404115906 0.740279642130007 0.086343479320122
0.909471274921627 0.566222775997277 0.073703976321423
0.767850054651692 0.243948901405918 0.771611625725053
0.776357321793636 0.236241722811322 0.775473390110773
0.452552635918633 0.418811938419643 0.952298138577730
0.629203808961883 0.859259211684083 0.034157824349332
0.642987305393985 0.862449983622245 0.036066028395631
0.582125374875801 0.259058825040623 0.814052157145301
0.590695124770765 0.251893075742298 0.805538132979468
0.572244067246027 0.986155338184574 0.153267337767019
0.712970474827489 0.736524319359790 0.012169741391376
0.727207261258290 0.739454974020385 0.013524598661601
0.341221297503259 0.399075780833531 0.007225905441200
0.862308397963758 0.315947437041985 0.279701892523728
0.506061001066516 0.509272378114182 0.035254150748768
0.520718675962288 0.504624949421640 0.034793460400068
0.264496785950165 0.121297503516400 0.829635283567545
0.264709757668018 0.107890866351101 0.839069392536687
0.332859050013549 0.294797654448648 0.340397036031039
0.333846012332471 0.281961348499348 0.340296604239129
0.267562087056540 0.439114573632457 0.389261314451293
0.283766997339097 0.446925156873198 0.398684408320677
0.295318019810513 0.440487093687178 0.398352659433850
0.526328027823885 0.531387484826492 0.035979851438702
0.542216795264570 0.533448512835664 0.035743998714473
0.558111280622971 0.535524312937142 0.035506202149111
0.573455851460099 0.537867295229899 0.035793890636906
0.796761172521179 0.011999434806903 0.582365732413421
0.788530685744071 0.011878046744038 0.573605488370646
0.869738376260532 0.784444986801457 0.169618929384139
0.423548539734970 0.398609496528558 0.123338663777687
0.338073128024178 0.477850210984014 0.981533509229358
0.442762897840699 0.593219352725451 0.595454262714017
0.452284971074794 0.599381370464807 0.600521208602663
0.461726164777130 0.605536034271254 0.605575195550418
0.472308704576737 0.611232756793557 0.609994194394481
0.481674322323165 0.617409745727333 0.615138893928477
0.317405755871431 0.467729400959544 0.453832477179305
0.550325216928683 0.096651230900648 0.252322890154833
0.550192047453745 0.110169622155569 0.242148177713732
0.751598738080421 0.900260117277568 0.199637668012669
0.740965897178581 0.893994823345044 0.207978042370553
0.439165084571318 0.128440131278942 0.269040571852144
0.443753340631275 0.135014996885015 0.259868233489013
0.828447552192573 0.134502469508475 0.308043096253829
0.854769862098741 0.399387921566613 0.279226947340048
0.855977254289060 0.392983898419386 0.270165407921541
0.213283302934452 0.609446412629497 0.321334433979380
0.630074755559018 0.895014739979062 0.399048554559733
0.881668935878939 0.427150463394113 0.110071948039831
0.517955032306235 0.823740036866004 0.529966254917918
0.906638833942554 0.720510729034869 0.409807715235049
0.531299135765741 0.064112165139147 0.696048041385674
0.428857916374210 0.251049781951072 0.004584225340431
0.600803160268262 0.472966428814572 0.611542787831036
0.873652249503411 0.116928175518147 0.729715369822255
0.408530304549557 0.208086114875497 0.762410777691961
0.698720429457055 0.046008002620441 0.353122068039623
0.499038892613362 0.356961187933127 0.754998263501921
0.170594489418952 0.143219930763846 0.765397813567493
0.350182683327629 0.404812490767442 0.013942524505357
0.238739638345848 0.616606015452893 0.173658879207120
0.241602740622822 0.610241241112660 0.164186541362348
0.245819912109804 0.603818495944097 0.154707724047129
0.247478108247641 0.597426123481846 0.145609251647081
0.230001997127782 0.648337433124169 0.256570830979126
0.671542917944566 0.886521429167817 0.416851547556721
0.665118961692437 0.035287959460241 0.432216963771985
0.855223980781167 0.393050051702323 0.452873515553321
0.839927307863463 0.360908547903326 0.461497690716733
0.860676719705187 0.360848817269218 0.425710927497317
0.860148848171054 0.367410195312751 0.434711559893633
0.848993107837442 0.373752561031221 0.452614336735487
0.855500761146003 0.373719805522194 0.443821695340483
0.858726826895428 0.386544550703601 0.444022558924304
0.443798503894399 0.528918618616690 0.583538516564118
0.839188950662657 0.675552829497942 0.507190916300792
0.639701574416213 0.155442231485109 0.190559929918048
0.628612957464493 0.158083224683524 0.187732289015483
0.618319048207019 0.149077386495739 0.195064457771995
0.930638343361788 0.437618096455340 0.310739851853388
0.923195106125382 0.434061233533934 0.319461219073488
0.254965265721581 0.539751700396277 0.108084046507047
0.491843597548091 0.095685264516792 0.520447912832980
0.862092940194724 0.489415474730088 0.480605649061513
0.865208791008450 0.482918965439727 0.471845405018739
0.377631174418865 0.359410786196443 0.006971910199723
0.317104943678510 0.349306675058928 0.003806688886931
0.363750721990697 0.356245062588713 0.005002151184188
0.348212073424693 0.353927770891271 0.004608847328126
0.332651879081785 0.351614975048009 0.004211655789796
0.987766970821218 0.592176764141067 0.242277119175604
0.284981018999232 0.113418197933192 0.870397632142320
0.405384621121657 0.454402404639721 0.551212438509825
0.405793990882822 0.180053179532303 0.253347942379365
0.560554820328938 0.639403207470825 0.636896955685606
0.267625895703523 0.481643427382321 0.406950916715479
0.257496894507733 0.475703119480536 0.402123063286284
0.510025374295722 0.223735541011824 0.089386238641488
0.510394113693750 0.205559444826235 0.081479988803475
0.466037971945741 0.771618957090283 0.055772041862563
0.491745564263180 0.778148221889672 0.034432553896235
0.477844229005091 0.777906088028825 0.045687394060658
0.582817574393010 0.205339147971406 0.084645210116268
0.326996112644636 0.326659130758707 0.378194378929799
0.484859616833218 0.235754243765214 0.088414966021657
0.301393928897279 0.520942973301049 0.982174976803496
0.525358302126485 0.080468082646645 0.279887205378479
0.781932705909261 0.798500953763351 0.516793491501527
0.985667914940588 0.515050835265480 0.341172628643406
0.861103491824621 0.772241954026680 0.142124592441309
0.239422473736941 0.612523176128299 0.391413794533400
0.771872485462816 0.380190624217240 0.550946780221546
0.180846135806347 0.119537055472418 0.912553066862951
0.219206734215440 0.174035799844572 0.891397595857286
0.492619991331968 0.848373464184099 0.054594074135509
0.478164929607461 0.835599457928439 0.065175049373565
0.357426207785815 0.816099011554345 0.264849650367775
0.475592363845192 0.213391865072993 0.070674175940949
0.314405092095766 0.776213720062428 0.310826676757362
0.313749603267666 0.776895805368050 0.297736202615633
0.319369736304551 0.783155318916628 0.288217860530695
0.449687959142578 0.506389251054920 0.579663793237506
0.440647682627392 0.500390497048793 0.574052571831409
0.432365651722461 0.500497755284234 0.567961869612320
0.812392633664613 0.816446476855985 0.132934111560930
0.813924869875938 0.809553690132885 0.123632183788883
0.820046356567692 0.797292853518648 0.114316001181855
0.447409078893177 0.398001913949351 0.786307064696216
0.732266375411959 0.068146230868535 0.316717811286719
0.857328837447886 0.223980243932203 0.581011523090241
0.944716851200721 0.669257606021876 0.131173639440796
0.580219568040320 0.993755900808612 0.207748021169726
0.588453120947219 0.993926743267458 0.216784290653493
0.596765813150051 0.993865728103584 0.225763540797338
0.605017845704062 0.991810480478359 0.234742790941182
0.616462796658416 0.989152788392989 0.241032412902958
0.692349508963458 0.237551300907520 0.169372709507197
0.388401576819396 0.801745675951676 0.453216927486950
0.379668079019965 0.795312108619837 0.447437239849262
0.372289479114270 0.788400696215133 0.440672672703805
0.747376594491076 0.898957604095081 0.089101789888916
0.750965623712951 0.908556895034650 0.099030282453076
0.918885950744697 0.444921932703486 0.372734777132135
0.915968984025464 0.438378538076674 0.363785980499386
0.911136100529281 0.433204452180168 0.354790531679427
0.905308796560631 0.428980276045447 0.345646702986258
0.898309733801926 0.425534524948779 0.336444559059077
0.343705691316969 0.352112088067361 0.461517129128071
0.938131301621817 0.502125254497460 0.075717795735990
0.730909820150771 0.390981958779440 0.008328063364037
0.830369269755613 0.170304240875022 0.272083331173510
0.231337835295794 0.102254349738919 0.856978648848987
0.590057866984660 0.909418814507479 0.265062824945443
0.847794002484394 0.210960250226398 0.626665871851625
0.453169010874817 0.435383656927790 0.795073788209437
0.279517507186760 0.533505674410240 0.078552564056045
0.267677274094601 0.533432456213592 0.088557514371465
0.431035365735420 0.567170758964412 0.592208048020651
0.580449610642951 0.984196430291781 0.143966705889061
0.588804317110745 0.982527826126051 0.134902574682376
0.597136234776044 0.980112267901528 0.125680992343858
0.558392535879934 0.062779465507164 0.298870109943654
0.566739452720693 0.065898303778444 0.289989347750587
0.692534305434591 0.239230823576259 0.061348922075297
0.692462209950337 0.250794160527685 0.069237029396062
0.692411660242987 0.261573934321993 0.077230104138049
0.817047350159480 0.418705964713967 0.158231908022621
0.984714928654475 0.547154060077457 0.368153791526926
0.408502129302837 0.114515828618039 0.338430516750727
0.492940111855730 0.202503548513478 0.766058719552968
0.454481480161726 0.484102659618880 0.839186023004712
0.696494584966186 0.899459855233495 0.308409834281064
0.536059509435807 0.506946094708380 0.035083740676042
0.551957392397490 0.509016114425912 0.034845296163635
0.567287875611258 0.511381575989570 0.035134280545520
0.583122778609684 0.513466367799408 0.034891300403801
0.226561302293051 0.455700421968028 0.210347584712597
0.226448601306171 0.462099949261074 0.201216067013275
0.938672432095584 0.150605334652117 0.530497571494477
0.930618454952338 0.151909132364370 0.524303197748254
0.454833007798743 0.416871656208453 0.576553647423503
0.465791935747179 0.422575610633337 0.580564439629478
0.211781728021029 0.436258421698277 0.275126090494876
0.214010887246806 0.436321363656799 0.265898676632956
0.198683553031201 0.481272198280015 0.230444958194457
0.196693883402542 0.474841200007707 0.239718376296542
0.555198457322374 0.277013339841617 0.839270256120508
0.667027420315845 0.739310464421737 0.606942363814490
0.852986534718119 0.806556882189352 0.196259920069253
0.345927392389203 0.615298556830808 0.499953347812790
0.402516546742320 0.191310798399476 0.505260034107932
0.789135624864821 0.193621667448089 0.222970241088136
0.791460082719210 0.180471936235942 0.230762452246303
0.357242239998409 0.230046435751032 0.451104620121607
0.362403282250506 0.242798605000674 0.479011699331837
0.360787348982749 0.236487067996583 0.469616467185370
0.359110093119190 0.230000834944348 0.460415619152278
0.361209148999820 0.217100944771643 0.460311947625144
0.365557252515677 0.217093879857931 0.469486877776453
0.371879280669378 0.204144535289244 0.469195301606390
0.445112381943645 0.318492090507967 0.798041385673632
0.230373247437503 0.641891983891997 0.247461343479320
0.474899418512629 0.105696247246289 0.498333480201330
0.972688241723729 0.540749137759395 0.394706661413976
0.803619359046285 0.234075363361357 0.663190646754822
0.332943575753709 0.262660004238948 0.349597236117087
0.750910101903238 0.068462867455796 0.770542513101489
0.462896017594613 0.413105414935228 0.785237952072653
0.458227296344759 0.424211459290040 0.790440966840662
0.698906054611915 0.785556105048844 0.022503848805445
0.744038656438500 0.879971611892177 0.360004561547194
0.751108157314004 0.875962594493221 0.368908649833866
0.758264669980849 0.872053770415995 0.377825049114386
0.211601074968531 0.429663645880834 0.311565336388188
0.621948682931518 0.985345442167259 0.134983568062949
0.605333574204070 0.988073783389746 0.144400182461888
0.597024362472892 0.990947918740647 0.153715069174826
0.829674832792341 0.016529971290760 0.608873246007350
0.837906148253176 0.021485687127085 0.617769558929488
0.248280274095430 0.591101355821168 0.136309915663213
0.385593996352134 0.739287985150836 0.503724399612268
0.991935249968303 0.611563735155653 0.269571240481658
0.785991598804375 0.730359218748996 0.568026664316779
0.833550586583776 0.437528821636619 0.186590606322926
0.294245703067704 0.441129358570061 0.003480771523505
0.272349392947736 0.441059351697827 0.013718982774976
0.825940783918232 0.206662213630145 0.728153817444808
0.608068230503351 0.132930205075177 0.796564066411980
0.596098722749772 0.160026718219128 0.033901237319676
0.398727804742226 0.176024894186861 0.834864216217337
0.390431023266953 0.183701244067078 0.830535929959516
0.801755649344138 0.707729657865497 0.560977000471705
0.589850778921269 0.539634808187593 0.035023481600896
0.932916394927461 0.111983378184831 0.539296692359927
0.849899687834840 0.403689169487280 0.009772985273460
0.659502972074187 0.896854828868522 0.055403359994194
0.771475545957557 0.871903480433400 0.282521758061757
0.265067749038105 0.712504255004849 0.254647724150801
0.259450930736128 0.706236392012794 0.245847955338306
0.255276850802953 0.699794475237478 0.246098062897516
0.937803142865903 0.710657101201678 0.352585567886708
0.932348746574429 0.715499778418615 0.361286848748426
0.655077800971715 0.904651282281839 0.299704017790034
0.670826935204391 0.904367401203604 0.296113095268950
0.486610045469876 0.273713382873365 0.759196960350825
0.488243463964274 0.280362108940969 0.749743412970345
0.769157717572984 0.861691468795561 0.083725773260003
0.031883606398433 0.180960057546934 0.865803687596220
0.751680777769399 0.812699503529246 0.061418252409067
0.868676003722447 0.476513657762734 0.462657515926538
0.873924886449612 0.470098716112499 0.453754723533955
0.933556138764748 0.523121535783788 0.058472685144389
0.709946607907466 0.790164997848413 0.027053732952513
0.729534205163860 0.800931926345063 0.038601445181088
0.720189138773863 0.795463040867314 0.032362363088789
0.292693578446931 0.401703928734289 0.345671972920997
0.472972977452345 0.883426354697204 0.306919556078521
0.280741473051620 0.371696671141112 0.061830994676467
0.500521407801063 0.817920474762201 0.529020252232825
0.479179735699612 0.312967970250291 0.752076022330847
0.556136195827909 0.938731783762259 0.085755791350684
0.555867536563598 0.947806986557396 0.095027265611636
0.555947670280004 0.959799356450587 0.105662020454392
0.384960881984664 0.478038394594699 0.915125416629950
0.474540018380205 0.072900917796518 0.420757372341473
0.403473676447068 0.334074078831592 0.189291249604752
0.406854706053452 0.327730428583356 0.179818911759980
0.454564845744668 0.285170103854232 0.003174940518461
0.469998582950827 0.287483541962376 0.003479475629416
0.485432983103968 0.289813678957476 0.003778827164014
0.547740220910508 0.298693633228216 0.003835198556892
0.532461696166426 0.296298627479945 0.003562412851123
0.516663619872830 0.294245306649368 0.003817703986689
0.500834650249890 0.292143815952575 0.004069107439987
0.927861424192427 0.535548719002691 0.058988450991877
0.817528815404899 0.036550009955106 0.515069952362933
0.436823638700524 0.522118318036725 0.576508291130382
0.481427540309248 0.887258749253367 0.298162551770969
0.833567988942045 0.317527408653877 0.158229964181487
0.690707886500162 0.064680569560498 0.308201843279752
0.699283105707725 0.066123096487453 0.316496861344516
0.892652309997323 0.510721327689966 0.010917907701239
0.871024493404921 0.264568815470877 0.417045931670096
0.440010259104541 0.869385802092499 0.260242746880783
0.761401237887751 0.826659773023590 0.490622910370781
0.825749357977283 0.617774680633787 0.561754536925206
0.340096773685645 0.198911361023513 0.744819015431507
0.346443662351158 0.204265923352109 0.754939948267908
0.606869953834030 0.035924443959178 0.511538640969951
0.615029173810611 0.046785785393612 0.501961983651000
0.812921333882474 0.207930686773839 0.672067521265622
0.261218513125936 0.411472777602939 0.011920929726255
0.851537166879500 0.155221292365397 0.425322807217612
0.439121744412393 0.475897725740050 0.848665488266975
0.857918031577822 0.037157592534313 0.652855891393708
0.390358099098972 0.307904353913641 0.550616327228808
0.928906394372243 0.745244349674693 0.266637336263782
0.860078410054254 0.399473342796036 0.334172856720766
0.553848863004492 0.424535160791013 0.598311709180632
0.546369909499450 0.434275107739934 0.598000694599232
0.226064920740545 0.419440073475103 0.289049176588896
0.234567215780127 0.412937783800795 0.280432776790018
0.397833655000733 0.121976377497608 0.749088986455315
0.373987452071005 0.237481936300169 0.255320293183079
0.383901824181488 0.231065067855285 0.245093744978410
0.404237722843413 0.527456181478365 0.849157928020859
0.375223019508044 0.191363464119872 0.459547370112535
0.376498363763981 0.185051927115781 0.450009589616260
0.730271733680939 0.219002691089859 0.190255394807093
0.613195296722639 0.264193732779273 0.003916191937465
0.598228439928302 0.261675412173489 0.003450965959454
0.460577526263059 0.809712329558957 0.085392941005717
0.734009925973683 0.922932067643337 0.098724451448032
0.725398244682129 0.918483098799607 0.088840019282904
0.880846052937974 0.476501454729960 0.435754754635413
0.545408056297458 0.122259616310959 0.226811919115475
0.198786309813356 0.564535610376431 0.303811354105652
0.200127120083730 0.564541840345795 0.312804859084477
0.199315010031217 0.558068452591218 0.321959702877403
0.885659048024708 0.427621885818149 0.290682651088292
0.952003467212714 0.587983288267747 0.416136214019501
0.946477804120713 0.576323097771983 0.420194306359730
0.679794950498578 0.888800184972286 0.407813982178864
0.868371048110891 0.438083096230547 0.116084248666525
0.513606124967163 0.648175453920706 0.627728505004743
0.501508121514867 0.642981522039319 0.624378618784244
0.988846745717570 0.553574782111638 0.341355997657023
0.244221381200315 0.606834533298223 0.400252440168570
0.254063657826545 0.612948329790172 0.405540335999419
0.264928530171960 0.618631140855112 0.409762358941928
0.379868620481913 0.401735399713550 0.866451634640804
0.382182305447850 0.395339726009801 0.876054209841538
0.880175647802787 0.038839684262584 0.626750104967421
0.885296084552258 0.043643183321666 0.635750089416692
0.900978095403043 0.049688180399360 0.636067583468538
0.885483367074572 0.035212172204060 0.609274973174992
0.888403648528714 0.033275101317285 0.600462893368651
0.899593364895134 0.042865400548494 0.600696154304701
0.903820480586841 0.048315660344639 0.609573028815501
0.244000122645192 0.659444633555771 0.363459415188915
0.931283887985163 0.726802998092473 0.338142180315887
0.366149761380521 0.295143192955639 0.274242290726064
0.256886983284621 0.686524640492232 0.355774763240150
0.909763800277278 0.765677364658733 0.353844528994334
0.781480244594289 0.048825618661648 0.740458331821457
0.893068309228305 0.633807795811148 0.045419143984200
0.894338681381880 0.626853351659291 0.036030391308179
0.899203883543419 0.611364735804340 0.036329742842777
0.735939930373993 0.029909633330978 0.739421616550123
0.336206932270850 0.313594178511102 0.452419952622112
0.365384886300449 0.819700190752670 0.255993510162401
0.085662694233107 0.195358351691405 0.916751763711855
0.396818517435091 0.382643433804970 0.837365291809431
0.418936086110184 0.347089576683216 0.151225656629535
0.835256846377782 0.373822567903455 0.141251159825210
0.688075986983036 0.898946043327189 0.335586677172048
0.944973743156108 0.699634551281640 0.204280856534157
0.473040183702609 0.863913063025453 0.177892565196432
0.945482554964520 0.443723466432026 0.329203750835852
0.867697328240796 0.630647338775458 0.462599200692526
0.408839403579748 0.385532341248178 0.179629063275917
0.349295991739681 0.320687351877661 0.302919778972304
0.250980954361901 0.648680338345140 0.191106797223676
0.798938953355879 0.290328775393548 0.130735627238657
0.791083031623400 0.287139930250034 0.139322869420528
0.954101694409617 0.485223411839511 0.238224858358776
0.299113391280424 0.552301042395905 0.905302539434057
0.938124672152001 0.719043796042364 0.248380132388540
0.948115283165373 0.708774622829948 0.248343847354043
0.750041641357285 0.251749208408532 0.746082512168445
0.742209751452890 0.255857776864334 0.755438867492238
0.738123511994783 0.257315718148479 0.766758502361119
0.277918147593544 0.198088619708540 0.853661159980717
0.930528957109816 0.622626991823968 0.425181554761892
0.684219292917323 0.901405917828631 0.258928710274367
0.689942182736363 0.324075299134869 0.599238273454387
0.284714182839120 0.396197791893333 0.309460156440334
0.301831473905164 0.542711899241485 0.934330567031418
0.320888713576243 0.537371466740313 0.924844622298709
0.415985143358141 0.725276334465860 0.016356127246432
0.376770172026455 0.427519123436888 0.856946251496758
0.281844451092329 0.723149795438635 0.347846483202621
0.383615099611927 0.471945869915671 0.991609085772638
0.434300131014897 0.334357959909826 0.005387031728671
0.502646732955840 0.262059486573453 0.692769429340079
0.363565925519564 0.372278563125004 0.256198261428490
0.944342286156093 0.547178979954913 0.131264352027038
0.358492723742535 0.474636317510067 0.021995858322491
0.353349912532433 0.481710865195024 0.014756993940399
0.937097933014180 0.521586522713698 0.148889807533810
0.930161021535004 0.447855798688495 0.283314197297283
0.314059530981584 0.403644210945478 0.397959355577787
0.313194385170539 0.397288999929351 0.388639933235536
0.312320123838496 0.390926081734629 0.379315975263974
0.271717935947720 0.591271106429714 0.088460970261822
0.283257356846958 0.488562546965620 0.078029670791066
0.464758567139541 0.876897732162699 0.233633505600854
0.955527030420151 0.637099403335924 0.141109907369490
0.951494655404303 0.649929800448301 0.140813795570116
0.425240711905616 0.420141426727211 0.803555415023041
0.763749727570225 0.015078452655444 0.564722134389401
0.439805325618840 0.875992138677834 0.342703079562714
0.599440804220983 0.166685720524859 0.796382641239497
0.800863985653827 0.224824822253194 0.671957370268043
0.621914706898709 0.906039858958632 0.299785011170607
0.638480923286261 0.904554942549406 0.308747414691292
0.646734613207727 0.903447677891316 0.317711114106066
0.461301878708878 0.222457433894887 0.682985428966861
0.697522981471461 0.006079679381371 0.555838780408155
0.515472188131094 0.080400002569060 0.508849660734927
0.507999507761866 0.083503426483150 0.499668251113173
0.094367188102091 0.188064791681385 0.921378105610185
0.486645347396649 0.158587402616587 0.807494933054111
0.556833284579107 0.274582367259905 0.003450318012409
0.541043461975433 0.272479592033346 0.003708200936154
0.509935246653568 0.268019704686607 0.003689410471861
0.525787643165472 0.270126333502463 0.003433471389250
0.450176053857813 0.222750306681482 0.616868912537516
0.870615952327483 0.316101580613877 0.380431092127703
0.448899880918148 0.216346925799138 0.626439090386021
0.446806045744999 0.209922350175659 0.635925035118730
0.446820796315341 0.203504197201010 0.645359144087872
0.448325768832045 0.197161189217657 0.654909883525039
0.446661357566255 0.190652476894521 0.664389348787302
0.446470677440660 0.184270933018195 0.673907690872240
0.447203565328867 0.177886177817455 0.683477868720745
0.447349496533202 0.165022896743075 0.692937895571671
0.829533127875015 0.023718199859986 0.626588118206275
0.398641621634612 0.191482925388089 0.495916637725032
0.865126751319472 0.181601680164934 0.515575351057709
0.863026866755115 0.624123982812992 0.508169316338114
0.598981713436195 0.515506843332327 0.034647672315037
0.272728101411000 0.456480131535848 0.060093200702893
0.496765315939814 0.654930988638334 0.009618125929804
0.013562237876979 0.195372481518828 0.866594182990612
0.009812444012056 0.197439932176828 0.875445139619629
0.003291531763862 0.208606349430632 0.884859810177434
0.796958399248218 0.092645424826107 0.395474478661808
0.085253324471942 0.208535058028632 0.883887889610558
0.408210432630913 0.385653087046160 0.549560173546136
0.399443787482401 0.379209885741077 0.543722170674435
0.388556540676355 0.373534190971040 0.539419802298398
0.871903726839326 0.303098928059911 0.289382869316856
0.534948493162945 0.379098773916339 0.791237941705500
0.456554018163090 0.133154355519303 0.683082621023549
0.791568640287454 0.756836588545848 0.542167097767434
0.741923855567056 0.957934861495578 0.163221748212962
0.258820302419839 0.552885503439329 0.413990861354883
0.865444965870661 0.386526567286880 0.325367256384870
0.504754440294580 0.285979357606664 0.858877133689618
0.464847733508572 0.235183912549214 0.664013539501444
0.868404195459973 0.283750056198177 0.079433772036679
0.859049184865252 0.277392918387401 0.087931597526397
0.490441050340050 0.807826639862812 0.536108792900574
0.803861334694585 0.437971342140926 0.524199526221121
0.881943230192595 0.481242011830519 0.424086524256546
0.894113279408121 0.481267060160952 0.415638590689260
0.821225573511290 0.026555726112563 0.635464992717075
0.812909732310296 0.029260945799267 0.644361305639213
0.714944399465333 0.456472424357253 0.585281494114049
0.320861367013250 0.553293726998889 0.004960682573335
0.838129064175754 0.290197111092557 0.479854030489796
0.863597001159329 0.041572521339251 0.661849396372533
0.796276392540852 0.277091696157329 0.599290109217954
0.313905395808352 0.652829883300471 0.422657801023238
0.370491235426561 0.588400375082692 0.010087887537127
0.844458550482998 0.832356662534762 0.353813427536194
0.356223787697859 0.819057283604904 0.354466558157135
0.317587237607656 0.774097457273329 0.333670049814169
0.829303582482620 0.778929858252140 0.104742583598128
0.407075964608575 0.844783845753666 0.267252238009092
0.725247424243805 0.206731578237497 0.191781958044133
0.720623369046840 0.194291549720936 0.192987787494104
0.835742455041836 0.220543484543896 0.543313964036347
0.750135282618442 0.057321498532425 0.514234100675420
0.605188554551836 0.541998342956602 0.035310522141646
0.614872552586198 0.517597415526111 0.034400804491051
0.630146851043271 0.519953885381409 0.034683309402489
0.613559088878816 0.995770685746215 0.163096694433357
0.190475440714723 0.500286450137766 0.304095154911179
0.375834588098610 0.797852908496522 0.425985657044221
0.345960539738285 0.615252313759240 0.509270826313907
0.427538651880739 0.438502495199070 0.886162183737047
0.305591211974811 0.565901065517441 0.020698668339234
0.310041243589096 0.559530825503054 0.011046201216067
0.626661407287279 0.217258299667949 0.164066023212055
0.971172579186945 0.460699811816389 0.311916523686352
0.056836930787506 0.143613639137053 0.938853237402614
0.056522030971226 0.151051708745721 0.929671827780859
0.928428243861733 0.698914572347928 0.150910754365867
0.622311646403968 0.920285294060977 0.064832285386980
0.609408212089998 0.819018105447048 0.015762607753594
0.102513149139039 0.179854719683492 0.924883499121384
0.919084834839190 0.480173283065402 0.407479641503859
0.660842124977108 0.928785669785933 0.073658620028302
0.357536422721513 0.728889074432077 0.044368173877885
0.716073895385309 0.044247554576458 0.766285501018573
0.394888513034781 0.756294516984695 0.496946873525920
0.646008686262827 0.522046384369842 0.034433849790324
0.901704022347943 0.614270027424710 0.437121922899485
0.586226530640995 0.633642155697853 0.007304307033595
0.574716942355931 0.040216700171485 0.352976279954592
0.959833699749655 0.432134438885285 0.042851977793559
0.844888637337340 0.296662149403657 0.470808689747404
0.699055217682785 0.317941027238454 0.606935884344044
0.225866865329779 0.151795451480099 0.747533913548314
0.277123439899298 0.713172852747930 0.143958930524526
0.277621478819258 0.719469617659715 0.153220037632764
0.275263044932060 0.163899575462912 0.740639756993940
0.284375251194755 0.160123700216443 0.739590082781714
0.226633397777304 0.449299610145216 0.219474566782606
0.864008856971675 0.316011021265390 0.297894301694511
0.927899543643872 0.721658456380580 0.213190128397186
0.688042010950227 0.890286385911277 0.398764105807161
0.696307302443871 0.891055819240971 0.389696086918208
0.704629773114682 0.890417407947386 0.380546426701638
0.498774045294195 0.743386919633395 0.018338845202859
0.483065350827399 0.737633510812529 0.012997169767309
0.972441293973066 0.495865740948882 0.376514900190237
0.082291608831448 0.163499444440876 0.810780024570152
0.090633967911709 0.162186655020263 0.820097503071269
0.101802967184953 0.201001290952415 0.822183892554829
0.769164347042801 0.836156301581898 0.090292716556861
0.226246402476770 0.558713479213097 0.174254990488137
0.220821838799469 0.545331697698765 0.183794714825547
0.337483933894242 0.751831418313541 0.429953036798209
0.492694158525540 0.795215126622522 0.548970541735565
0.846318945450236 0.294831694487441 0.249952051918701
0.857680199348158 0.290211240919980 0.260899765183991
0.850614013207561 0.280453952819222 0.255331956229881
0.847527166324282 0.267349822413760 0.254947075685398
0.310772971320085 0.323368807763698 0.013805159731905
0.319993735151023 0.323212737397157 0.023674689115008
0.336516859984769 0.703562001040469 0.454882151391531
0.702551434327229 0.032027822914726 0.524102334164433
0.228433298832467 0.629022665527717 0.247571494476899
0.223652622411088 0.622614339205775 0.256838433108539
0.780357378144130 0.013425905111786 0.556052602932868
0.788729569838564 0.014255069075588 0.547344194653659
0.797077729704914 0.017239673986345 0.538590430081330
0.805463180338981 0.021824802985247 0.529907939683905
0.976086673688380 0.624298614634648 0.223697237672160
0.294706451219947 0.334240425436258 0.031687202268333
0.439862587664380 0.171697313405995 0.636041665586755
0.443155693927323 0.184421223000790 0.645475774555897
0.602075189789291 0.181919601281961 0.060073114344511
0.613779518750212 0.182046127463889 0.051891487012549
0.821396282359064 0.212089351890507 0.718907613118595
0.839092823350319 0.425178067938779 0.232683615233494
0.843664671472480 0.232434376585591 0.562557991260490
0.575102031683894 0.096208710396342 0.247082294458238
0.727858606667755 0.675182884925401 0.011337777386130
0.515775859282874 0.337085658867430 0.744268260443610
0.301260510817223 0.591398082197060 0.067760358081455
0.948977114241510 0.489818174811656 0.219664415266669
0.663613243360379 0.024501120752221 0.661661491729604
0.646999792000385 0.026815843390131 0.670441174183716
0.861399331915179 0.656364909215859 0.471430718910205
0.361383172582502 0.668536599464351 0.008199769849210
0.382402735319246 0.687744301504827 0.542225413001446
0.418934428742729 0.353458275261884 0.160491299367085
0.148751215057515 0.151760126911541 0.820317805066428
0.915941637462471 0.058317009100893 0.583402447684756
0.674846051280606 0.615363297131003 0.017653965176734
0.669365137109866 0.622703935156937 0.011048145057201
0.753125173505655 0.513518391254921 0.595460742184463
0.842829358275609 0.264574595854822 0.479899386782917
0.841795160984244 0.138773530979647 0.422519140355697
0.779170703046987 0.868099345532084 0.274020044889771
0.631134642045921 0.072700531153058 0.283752209499422
0.624757920766234 0.066101259481435 0.290366452930535
0.482878979857185 0.768651051066481 0.565415437727105
0.508504938540671 0.777768001079005 0.567255607333724
0.431883109188197 0.844907160611179 0.167059538558033
0.200814098893459 0.455194959505199 0.339677814811551
0.839595005688914 0.199378287593369 0.524076416282650
0.956623378991045 0.136050327876223 0.575465096388602
0.488056761520568 0.305669914386091 0.877576885396310
0.313257365133795 0.543284799517017 0.447314129910791
0.887248463413199 0.776994071895131 0.396872748384020
0.419433296346416 0.448237304028928 0.812717386233458
0.401978731003461 0.435521743877610 0.964660968188392
0.283495189076623 0.495053918136918 0.068758844477159
0.860134760547694 0.617760101220945 0.517221136550952
0.855969796135516 0.611357394716729 0.526188723647994
0.854530372501622 0.195339083744918 0.032306639642955
0.866222271206638 0.204313450953442 0.041526278140340
0.359660339113955 0.791321716902485 0.413504901071445
0.872522753583436 0.219645598237625 0.316797508773203
0.876865056313203 0.213176706337228 0.326144144891326
0.551139232953769 0.317943596297985 0.733985340846063
0.532627681516955 0.320762496868959 0.734024217668738
0.912529946558186 0.694741135138954 0.419085021019402
0.912363381129048 0.681977405121420 0.428158871431756
0.909871529161795 0.675667152647095 0.436998812961014
0.391811610356226 0.179835451737005 0.263146845534608
0.786599852660033 0.156299012838875 0.242360056397311
0.779449969463005 0.145284170097432 0.246153786343350
0.767523553263232 0.141197438647647 0.242774094558800
0.194186286444474 0.474707608912068 0.248901081812386
0.193221698586183 0.468227798508661 0.258098042163210
0.495167447977307 0.381069884841907 0.916337077603322
0.317834185358319 0.613497254317626 0.431835970909769
0.883310558342235 0.206772683190001 0.344681909836873
0.604609304626624 0.351891148947649 0.619071932489102
0.795557923749496 0.258869356900173 0.206997050545053
0.238744610448210 0.629156513529310 0.228589885805813
0.189905306310509 0.493992896550395 0.276727167642043
0.473350691495136 0.876250971425635 0.224667214397902
0.713734521223833 0.007802876062146 0.617575174816113
0.465864114099805 0.369922735534589 0.923762550734254
0.360016673116588 0.417212698861264 0.498890714659672
0.656785718133175 0.036111985304979 0.440867056817180
0.678788928453933 0.303631365647820 0.653069713918421
0.484786361191747 0.293527896775188 0.749853563967924
0.868303096045273 0.354541133854424 0.307381542321309
0.456520207867026 0.874958092216392 0.388180538780927
0.881299342936673 0.264532206372552 0.380970184068796
0.885475908921029 0.258082582418641 0.372105620551844
0.884150843641468 0.245283527832549 0.362832850396803
0.081984167168711 0.164897012826030 0.847563978291182
0.447145308862855 0.417744494184292 0.886110347973481
0.986901825010172 0.502181131542271 0.305205736145596
0.723573483115155 0.894414864578449 0.225356630053339
0.018558372067392 0.215229384902922 0.904233426810494
0.217754051641913 0.209934553208434 0.812646112058554
0.843516337085337 0.808141349655425 0.422619572147608
0.841549041917309 0.814851090886904 0.413870343204591
0.835121770930272 0.774270868791707 0.113883172556073
0.914020748583158 0.442393335859575 0.282798431449794
0.574470989025741 0.164805811212660 0.794471197457974
0.600636594839123 0.143103038555161 0.796965793579622
0.593094247028962 0.152942536560928 0.796544628000643
0.582150401124358 0.155351672136623 0.795378323320392
0.575659984437320 0.141252673427575 0.794782212039374
0.565008912493485 0.144384356996513 0.794652622630458
0.231434791291860 0.127645649618816 0.838849090541528
0.704433375071370 0.032257111477916 0.759449659698212
0.973761387150264 0.662801752098600 0.295545493657894
0.843310823521027 0.192771951008035 0.709629011440153
0.056915655741577 0.138462674776331 0.946771150287429
0.821919181790835 0.283465532855060 0.104318178283925
0.834876480547064 0.276451358069095 0.098097886655919
0.840992995136455 0.277395487446933 0.095517761524386
0.820976139709447 0.228426643716402 0.533990006064784
0.987866412868464 0.617944431242333 0.278363233929617
0.981599077840749 0.624249160238666 0.286991296775297
0.978270255309170 0.630768020346951 0.295769035388276
0.858340660278620 0.386620337959781 0.261209483871302
0.613762945075671 0.968644628417652 0.106385777303193
0.376229041552688 0.417680909960886 0.923561687150433
0.387865418447991 0.409041805021227 0.927196670070549
0.352883363594101 0.311209449000957 0.015792413317644
0.335961641887642 0.314000089917084 0.015265632370398
0.924162180034855 0.158008721957110 0.636786804688026
0.930557961040263 0.145740820429161 0.645767350725960
0.929177373950990 0.082175864970231 0.654741417293447
0.731194058669151 0.688276739092737 0.011400628249454
0.473213212864818 0.264368428827417 0.636955270919618
0.637255300053947 0.626458358756318 0.639339716043687
0.709568728127929 0.654001567126314 0.628797617628306
0.696528560998995 0.651747281613883 0.631810571385622
0.683399724711266 0.649089653755002 0.634285729095932
0.670382760726689 0.646539476811026 0.636806243099364
0.657002004585936 0.643295910699491 0.638011424602290
0.643651081059356 0.640016185075049 0.639125893518974
0.590596097065382 0.291202897899152 0.704302886733673
0.427315735958161 0.765168048606606 0.533581799426696
0.435303335534870 0.765076204728354 0.539782652643365
0.439696436577105 0.759606676985722 0.548698403976840
0.445275549769502 0.753543696491307 0.556609837391210
0.436135748338696 0.729718238395879 0.563244815127749
0.449318863410547 0.741329102948638 0.565778288072072
0.464633353028383 0.879482206051420 0.279313772244022
0.194403401580963 0.519673857892472 0.285654582022320
0.838398386387047 0.010459925882633 0.556357138043822
0.332866508167092 0.789474563099313 0.333320806357138
0.721274714456305 0.028135697724456 0.697700306349363
0.721437136466808 0.032613568487916 0.688570732491175
0.713157757349803 0.032812028336727 0.679629063275917
0.880157416760791 0.422670665836004 0.299672916331894
0.874355801987681 0.418389328126706 0.307638777298009
0.766846518658229 0.271268280464229 0.113163951336585
0.766811713941692 0.262388326193489 0.104719905451567
0.472156641112823 0.115450966287516 0.785510089831378
0.428914266867650 0.515458031201228 0.570106574329893
0.671362264892068 0.598118613478571 0.634292208566378
0.924804409923322 0.481920885811726 0.200478703276539
0.929774854918196 0.487382064110881 0.191399021340784
0.935851592688689 0.492080231729170 0.182722362466760
0.859039240660527 0.801888901020559 0.213720797026701
0.409943210304185 0.199456643909081 0.799440951289933
0.244618320705574 0.673994694892067 0.283205342193793
0.743347534210136 0.264274658154516 0.690320189511552
0.658182050213262 0.569981245865420 0.632866725068294
0.913487076262935 0.051330451704892 0.574745875169114
0.882252329222786 0.245332339963648 0.353663103821851
0.885339176106065 0.251810865837289 0.344753184011777
0.534598540025010 0.333121600010276 0.619583810654323
0.880509607344790 0.457254702984605 0.435864905632992
0.442206768191472 0.165742875676787 0.550661683521929
0.947708399455389 0.692419989852215 0.378414032977913
0.325972688241724 0.758289391710929 0.113268270810763
0.470404555108711 0.627218864604140 0.039211811297086
0.383709569556812 0.640827750981060 0.010198686481751
0.393050492528173 0.717833769003012 0.534469486877776
0.451676468614018 0.305723864636253 0.797983070439619
0.711488788323515 0.255227072749343 0.006039514402567
0.697131014068564 0.252438358627865 0.005136924169461
0.744565699288907 0.865571390953057 0.066752152480082
0.328070086754899 0.694157316360413 0.038348097886656
0.461724507409676 0.120241620048941 0.681637699114127
0.465544905128144 0.113612161927822 0.692335304820208
0.458039765217326 0.097696195865099 0.463519285495835
0.725097432489209 0.638025035485135 0.031339902652436
0.585181974803043 0.280461659997816 0.006137354406299
0.439389160651113 0.184595919048934 0.607674543974870
0.439338693812136 0.184682624808123 0.598182119771715
0.438275989800561 0.178328056056879 0.588696175039006
0.524777477702193 0.131545481987681 0.222204367681438
0.524928132403771 0.144648970128260 0.212143045973139
0.481380636810297 0.474627968066590 0.035533415924983
0.464787405333243 0.472879080790500 0.036219591845198
0.356174895357962 0.365726176789832 0.284194757330873
0.725669224260876 0.911325698944759 0.227779304053038
0.308011797141538 0.591571236809485 0.020733657479642
0.304531325487908 0.591547537235307 0.030264310558427
0.732374932980204 0.179132813955131 0.204962496825059
0.541115060249450 0.217732933416400 0.173673781989146
0.552483275090679 0.207276218858182 0.174414385461105
0.849289776611728 0.219556965683787 0.617665887402354
0.250422421529866 0.584709214574275 0.127013819414567
0.252703787830448 0.578812644911014 0.117782517870379
0.661834888082119 0.524106770114131 0.034182446337026
0.438424324187703 0.171995324311653 0.579190791894960
0.568308565357871 0.242162120501737 0.115252284661279
0.291070187025630 0.719685418660364 0.124610583826205
0.297883624629475 0.713199185608128 0.115156388498681
0.297838047024487 0.706844616856884 0.105773467346061
0.514340214446775 0.896635816543459 0.280792387399763
0.506074840084758 0.895728938528828 0.289791075954944
0.497948096223440 0.893769388371152 0.298690628612305
0.497823213585773 0.892375673575296 0.307658215709347
0.506103230789247 0.893159878997296 0.316794916985025
0.514486079356411 0.893120058574557 0.325767039711378
0.855672298677504 0.380097495809222 0.224720994002602
0.829224028844823 0.040164676715971 0.696657111607582
0.439048074429058 0.121434305936454 0.767244462644557
0.390287660982173 0.755024759311235 0.074244364156606
0.365342623430369 0.728671346636780 0.470219057936833
0.022557599734158 0.176048015722644 0.931609189444165
0.607092041072880 0.041858971477017 0.457946940912413
0.926775019826258 0.131336745900744 0.522080739385332
0.281130954403335 0.125106134271896 0.820583463354707
0.281248627492577 0.112323778572759 0.829926859737607
0.894447238950124 0.381419919203078 0.059964907188065
0.417909346972363 0.516559515475372 0.565959713244556
0.675522257201883 0.282019152338808 0.102490967618198
0.188929945563766 0.487331967450016 0.322299227128765
0.559862703680102 0.353230913493343 0.800859955317572
0.626943159754478 0.278976743588591 0.128821591668956
0.614531134890651 0.270421775348589 0.128461981059212
0.847154258647108 0.386444999646754 0.196873525920474
0.671240448384191 0.268488558051111 0.765760663912460
0.897746228867529 0.744958541801810 0.142648133653333
0.888719377028721 0.755650967572046 0.151767988305852
0.884837822451197 0.761352995202281 0.160701234209531
0.951422559920049 0.604961297118157 0.113591596386011
0.849734779773156 0.328798515083591 0.215163127147944
0.856900407960999 0.348093436695162 0.206577828807207
0.855875326190632 0.341673356925863 0.215606970873484
0.857288231945260 0.341612984026872 0.224741080360984
0.857984326275987 0.335242358653556 0.233957479123146
0.265852512527626 0.384635739471673 0.046694951714986
0.982359809502185 0.495805368049891 0.296080697916721
0.400381857461427 0.347736337420279 0.555339861183825
0.786133303721702 0.863977289513741 0.265459368536728
0.792732112240239 0.859906614686029 0.256828713902870
0.799733661050125 0.855822452295776 0.248252486820757
0.820488044994212 0.843715759253431 0.213831595971324
0.813503898542594 0.847798637113918 0.222407175106393
0.806842110060801 0.851864173822568 0.230987937817818
0.806160103353435 0.851544968175775 0.239648398015727
0.818635936864244 0.842601429681629 0.239834358817523
0.621570803151982 0.543797969158440 0.034534929529279
0.935454653183430 0.520921778559914 0.026129112519892
0.408488870363204 0.192711578109044 0.243637160022186
0.394100434810352 0.192778373656864 0.254049021081605
0.985367102747667 0.527912831810095 0.350134384217047
0.984932043790963 0.540715097720602 0.350136328058180
0.704681980189487 0.891323001432251 0.371465448871795
0.646610310648669 0.889299224786286 0.416906623055511
0.704716784906023 0.895409732882035 0.344402644660657
0.654928637900845 0.891003153520575 0.407908582447374
0.663197244129397 0.892586336456881 0.398883328063364
0.696400943705028 0.896062274003044 0.353509540372284
0.671519714800209 0.893554229635386 0.389864553149800
0.679802408652121 0.894314671256720 0.380783575319956
0.688096704076212 0.894443124233296 0.371681863184686
0.688086759871488 0.895985202217098 0.362629395024803
0.638378166504107 0.894387247188485 0.399042075089287
0.646703123226099 0.895461114072666 0.390038850904793
0.654989960496647 0.896234400991657 0.380944266187013
0.663276797767195 0.896954379925369 0.371856160939679
0.671547890046928 0.897604351986846 0.362757688539631
0.856267293593529 0.373790454659311 0.215586236568058
0.896144383223132 0.474515571712085 0.011885940585848
0.317818440367505 0.551233855066507 0.456184524951145
0.573710754574541 0.741803736697089 0.605264180969018
0.617071050514074 0.231093327510132 0.795378323320392
0.630722786233574 0.234603947359970 0.794736855746254
0.638407170434554 0.225203758534095 0.795637502138225
0.548354109815510 0.031898085408384 0.598635682702924
0.759869830360154 0.900310213938432 0.190984335232250
0.871384142142463 0.508605064900866 0.453741764593063
0.508573271800804 0.154045305364839 0.211526848333739
0.364453445791240 0.781620305846537 0.434342230078220
0.771262574239703 0.470086513079724 0.569095776940342
0.824527049479877 0.205998111741244 0.709505901501682
0.828807200930115 0.200656394710306 0.700097710414323
0.836083872737383 0.196782252936756 0.690909821322123
0.858931511776010 0.185597852266232 0.700577191227315
0.859896928318029 0.186186809163835 0.691298589548873
0.852479380277162 0.189948554582881 0.681877439520623
0.844522359129982 0.193613960269494 0.672462768962818
0.706268080843070 0.054062004251794 0.457765515739930
0.698004446716879 0.056943846781290 0.466467444548692
0.638246405791505 0.022376508519644 0.750533908364737
0.884931463712354 0.676495674346014 0.039015483342577
0.509789116565139 0.155989441165325 0.800918270551584
0.522854848587053 0.157869992742407 0.797134259811214
0.850250221051384 0.328758052395969 0.087594665063214
0.843620751234946 0.322339257156436 0.096170244198282
0.835944653871238 0.315973127637300 0.104705002669542
0.339385763047832 0.319977006917193 0.461627280125650
0.342658235085972 0.326387452713248 0.470808689747404
0.753635642681521 0.432725322577537 0.563251294598195
0.945539734141687 0.540713170925953 0.140341442174614
0.459951787180760 0.312203675039660 0.778687207451909
0.757891762303674 0.085279931149205 0.775855678867078
0.438237621743998 0.296193938304035 0.112620323766179
0.814554669508500 0.418699542065139 0.148868425281339
0.908401444230000 0.052991990956910 0.636287885463697
0.882692360281852 0.174870744192320 0.682337481922277
0.482166063246799 0.942237907757917 0.172910500370626
0.923145385101758 0.433704134259051 0.328432045905752
0.929261071007423 0.438006666709484 0.337529222411711
0.935134781264787 0.442137072171305 0.346666571634433
0.715991027012604 0.045721552482675 0.419552838785592
0.636887364479135 0.546162274645309 0.034820674175941
0.652743398912601 0.548222275030668 0.034571862510821
0.698246422365179 0.604272037713794 0.631395885277088
0.889142834413246 0.770173861103796 0.405515066064681
0.456047029458878 0.305847179493767 0.788425851532006
0.937245438717595 0.611415134329700 0.103592477593991
0.795571182689129 0.852801880551577 0.396167781999513
0.505970102748495 0.963859755040174 0.168991068697937
0.768159153681883 0.906819568526452 0.182280462582354
0.430742923248142 0.222134374658797 0.011311211557302
0.422127347143071 0.302641635463298 0.066745025062592
0.426492024333469 0.302648700377010 0.075830538521748
0.430719554367039 0.289816248017007 0.075456025129978
0.886039413855426 0.688485475179674 0.462910215273926
0.808947795411247 0.845420972517486 0.187243088996822
0.880256030124311 0.232463278505321 0.344464199629893
0.295792855586116 0.542167258620800 0.891293924330152
0.287346911039973 0.540062556599593 0.900242073015856
0.851151000262693 0.303093147675965 0.461905897354821
0.529725879709928 0.348560363265018 0.617179927118916
0.543779858510540 0.352486528494082 0.617387270173183
0.352606583229264 0.815334074078832 0.313896001907556
0.357683928424929 0.820853056217445 0.301822156678779
0.862814723720989 0.335232082415430 0.416630597614518
0.537601689851856 0.665783338364408 0.631000637579892
0.475250780412900 0.448149956004856 0.034886764774489
0.147990483396078 0.136364395403952 0.874810151515937
0.586324398189160 0.978094271639510 0.247427002285957
0.647173815583066 0.057524454235416 0.780371869767828
0.661553135614921 0.062609907578083 0.782445300310496
